47.75 29.2036 12.9896
35.0671 16.6173 15.7229
26.1227 1.91865 40.7755
44.4279 30.849 46.37
34.6795 29.6857 30.9605
46.2312 22.5611 18.4234
21.1562 9.19009 1.46452
26.5192 1.74466 12.868
37.6396 18.6666 25.9203
46.4198 30.6738 2.83136
23.0684 23.863 1.22916
46.6323 15.2146 9.71185
46.7732 28.2836 21.7901
32.8404 17.789 23.832
19.8972 18.6128 1.56836
13.3352 10.3495 38.5742
47.75 25.0365 21.8038
45.5075 30.5932 25.7441
35.0939 29.8441 40.5777
11.7414 29.3839 46.7019
46.4454 26.6513 24.5405
42.0173 30.0479 15.6476
19.8453 24.4004 36.2642
20.0969 1.83871 35.7559
24.5403 31.75 13.7183
46.9308 31.1537 25.772
21.801 14.6604 16.2706
26.1864 12.4486 44.9502
22.9813 31.75 18.2427
46.2003 29.6869 10.9902
8.48984 2.8919 35.9477
44.1262 2.32104 28.7397
38.6485 20.0913 23.7437
40.9884 27.4901 21.9308
33.0804 12.8506 25.9849
36.092 25.5191 16.886
27.2824 24.4433 29.1711
42.1187 29.6525 8.96094
21.2325 22.7695 2.13211
20.0958 8.1419 4.72983
27.7379 13.716 6.42819
24.026 28.2977 29.9497
1.85793 15.6588 15.0052
12.6502 30.4993 10.9838
21.0123 18.0414 8.95114
20.2092 30.763 2.0481
34.8239 25.828 9.61386
22.6051 12.7789 11.5775
26.7349 19.2803 1.5629
16.2101 22.3676 8.37903
29.4358 16.7587 2.21788
17.377 30.306 7.18815
25.4977 24.5316 4.04547
5.19017 14.7224 3.22345
30.2237 29.3868 15.0219
24.2746 22.9314 8.26616
21.664 28.4058 14.1289
23.8684 14.2887 1.60591
27.1474 27.254 3.00625
14.3037 1.43459 1.37246
37.6811 6.9182 20.4366
14.523 15.8688 7.07305
39.798 29.2261 11.7129
47.162 27.4976 20.8252
42.5636 30.001 12.018
40.4048 30.5283 26.2954
17.2698 15.4597 13.3738
7.06248 1.3902 37.1043
24.317 2.60313 7.63392
18.7258 29.7201 24.5556
7.96127 30.0331 24.2768
35.9242 15.5331 18.0474
5.55986 30.5729 27.7211
34.8913 25.613 15.0788
12.2626 29.3279 11.1342
44.9318 18.3024 45.5593
8.84868 19.2141 1.84307
45.6313 25.9797 4.12684
10.5127 1.78154 47.75
1.45136 26.6703 13.9173
28.085 27.336 34.8796
44.0131 30.1532 43.8819
0.25 7.33233 10.7388
46.1532 29.6485 17.0336
12.7711 28.1733 39.4619
33.0041 30.9526 28.6917
20.2996 8.88569 31.2791
34.3032 5.94659 10.1282
26.9486 5.84464 17.9144
17.8304 3.59222 22.2839
12.826 28.1386 13.3552
45.0979 29.2242 21.7611
33.1827 30.7445 9.07339
12.3187 14.1166 14.1869
32.2048 7.04002 32.0621
22.2705 22.0793 30.4726
8.96083 14.5544 17.4103
31.4355 20.6472 32.9583
2.35247 27.6091 43.547
45.2614 27.6637 9.6636
44.5094 22.0382 37.3446
36.9182 3.0955 45.6324
12.2239 30.8567 3.04482
4.0274 30.3127 16.5888
11.4536 25.0944 1.47717
6.75185 30.0815 23.3812
21.6057 20.7366 1.43835
16.99 29.7977 2.54262
8.4274 14.047 7.33374
36.7533 24.8307 17.2446
14.4029 30.8592 9.35559
21.8729 13.6651 15.4734
4.2962 30.6455 27.1376
24.6591 6.26779 6.58422
21.9635 27.4941 1.26333
15.8178 21.4153 7.20885
5.73079 19.7859 23.4719
11.0696 0.25 1.02544
13.9016 29.1307 7.69558
22.4387 28.0591 11.4304
9.44483 29.7307 1.54236
14.2433 31.75 5.02324
21.9643 30.3007 4.36032
17.9294 29.2778 47.0754
15.5099 25.271 4.02363
33.1125 22.792 6.67541
23.0067 21.424 12.2336
3.61708 20.5762 4.57578
14.1425 30.8462 20.8162
19.0622 27.7623 23.8829
22.8063 30.2668 31.1513
17.2083 30.8258 11.2748
18.1585 29.8134 21.5961
17.1121 29.514 31.0306
2.13327 29.266 17.0221
20.5185 15.5282 2.32639
13.8392 26.6058 27.3229
5.30956 31.75 7.96778
29.1066 20.8477 8.48093
34.4564 31.75 8.75141
12.2291 27.9965 9.87869
21.7394 28.6409 4.45714
9.13691 28.0251 44.0429
6.23126 1.4357 13.7566
14.5043 29.9736 46.1875
2.45959 30.5762 1.55417
38.6625 29.1607 1.24892
36.5258 29.0791 19.3485
5.11572 24.1564 29.0332
24.9206 25.8583 10.7758
18.4676 21.1738 38.7458
37.8404 11.2189 1.93211
45.0181 22.3089 20.7964
27.2223 19.4914 4.41151
23.2653 30.0611 12.4864
46.9262 26.5329 13.1579
17.1581 27.7292 14.9438
40.665 29.8912 13.5215
19.0055 30.5065 11.169
26.3739 11.2512 40.6901
33.3079 23.529 17.386
9.00969 31.75 8.75513
43.6996 30.7799 40.5618
46.3295 29.1559 13.0761
2.89072 27.7608 29.2204
39.3751 29.8222 24.3918
6.09961 28.7989 12.4142
13.0218 29.6314 20.185
16.7848 11.6395 4.18071
8.77382 25.1461 6.53831
16.9645 28.9003 3.40836
18.6156 27.6236 21.8
1.93874 29.149 7.24998
2.03795 30.1339 1.45976
8.3007 29.4336 6.56921
38.1001 28.4102 9.83706
6.47586 26.7699 6.27517
17.111 29.4478 9.40925
1.37651 28.2526 19.1941
21.674 24.6147 22.5919
7.51879 28.682 2.31761
22.4005 24.9995 9.28607
13.8656 27.203 25.4934
25.1934 29.4606 4.05986
6.57871 25.9799 14.5871
15.2652 28.8217 4.71645
1.82704 29.6871 5.75585
24.9899 25.8418 2.37125
10.9281 25.745 1.20859
19.7089 25.2989 1.7093
27.5918 14.2839 25.441
16.038 30.4908 14.4336
7.98157 31.75 19.7729
6.25011 31.75 12.0094
30.4633 30.5957 21.886
4.2218 29.5432 10.122
16.5529 21.0239 27.1286
11.7268 21.9435 37.7813
29.1625 14.9219 47.75
4.99874 25.9333 19.733
25.3895 24.8591 2.00665
0.25 29.7426 11.4926
31.0878 1.96413 1.67775
17.3583 27.8102 3.92404
9.50424 31.75 4.74687
10.7586 30.1217 19.9461
30.4261 17.9409 22.1545
12.8803 29.9975 29.4599
36.1283 13.015 2.14093
11.0831 27.7714 4.46808
42.2106 15.4591 25.5254
5.46432 31.75 16.748
44.5262 22.5406 26.0769
1.37655 19.7917 29.0753
24.0167 20.2303 3.45156
17.6547 22.6736 11.7635
13.4804 31.75 6.73724
8.25749 22.9495 10.3996
46.3588 2.04692 5.94694
15.7475 31.75 5.50218
13.7056 3.03702 8.76805
2.7446 31.75 9.91019
25.3155 18.0316 5.15387
11.3303 1.21981 17.6084
12.8603 31.75 8.76771
11.7609 15.8742 1.6725
40.3997 12.0962 33.5828
21.0411 23.0893 23.728
9.90347 1.51628 17.9416
8.31841 13.846 17.5176
3.9287 28.4581 5.24192
9.06325 27.773 27.7237
11.0682 28.6789 4.64245
19.7683 28.1081 5.55672
13.0119 28.5682 6.045
9.42254 27.1412 10.3552
3.20719 21.8762 4.39135
20.221 25.7506 19.9537
13.6277 27.3216 3.13519
3.03636 24.7816 16.7964
15.3687 13.1681 4.61738
33.543 29.5304 1.51793
6.8801 29.6984 6.20189
6.50442 31.75 1.74571
39.2889 18.3166 15.9276
6.73432 31.75 2.98314
14.3055 26.8283 1.36123
19.9434 24.2337 1.58345
6.21908 31.75 8.19032
20.0319 26.9958 14.2303
10.0482 30.1377 19.7642
3.05896 31.75 6.25788
21.9385 27.6035 24.1665
6.17278 2.88197 2.61126
1.6596 24.1703 36.3703
1.41707 6.02508 3.59018
6.04035 31.75 5.28588
11.7403 31.75 9.50525
2.62254 31.75 11.6472
6.92747 31.75 4.79759
2.88575 24.0428 11.5854
8.48743 31.75 10.7187
9.45546 11.9225 12.4771
1.22864 6.42404 12.7405
13.924 11.7327 35.2641
34.0025 31.75 7.24188
1.80285 31.75 4.25832
17.0608 29.5058 1.53043
3.42885 16.6791 6.54228
0.25 31.75 4.50334
5.20058 31.75 5.74234
10.5007 24.6619 2.06612
7.65578 31.75 6.42757
47.75 28.7536 6.47852
5.00075 13.2788 10.409
25.4125 21.6281 5.0592
6.96531 28.0367 13.6765
0.25 31.75 5.39876
5.73398 31.75 8.96507
1.75604 30.2799 27.3055
30.9159 23.674 10.3048
29.4412 8.06328 6.39448
13.9268 15.1219 1.30489
14.8162 27.5181 25.3467
2.83182 31.75 8.10634
0.25 31.75 7.18667
3.74079 30.5842 24.8338
13.9889 25.1895 6.92076
4.65076 30.7149 7.22595
29.05 31.75 8.2833
2.24097 31.75 12.465
3.67183 17.4636 13.3295
2.3929 15.6876 11.0182
0.25 31.75 9.96932
6.49854 1.25847 0.25
8.85027 0.25 0.25
22.7134 6.15623 8.20157
18.2306 18.2879 8.16204
8.258 1.15648 0.25
8.07211 0.265338 0.25
29.8652 14.3078 7.35118
26.8059 14.4353 6.02938
34.6229 6.97166 10.2575
41.9417 2.03969 2.12736
22.7275 16.6259 5.00075
41.6043 10.0068 3.25609
26.88 17.8364 6.40755
36.4469 15.673 10.358
27.5637 16.4299 9.89127
37.3101 19.7239 1.52546
7.96262 0.25 1.69157
9.57051 0.25 3.18038
31.0939 22.8346 4.46279
26.0224 9.21318 3.74816
8.41239 0.25 2.44287
9.2911 0.25 2.45937
28.7859 29.9421 4.27785
22.0708 17.8802 8.43734
40.1842 21.7873 1.39739
8.95854 0.25 3.94393
39.0302 2.58518 4.6838
44.0058 25.4885 10.7755
44.4467 21.342 4.41496
8.70873 0.25 3.09108
41.6119 4.1587 11.0833
30.5032 16.6184 1.28458
23.2272 19.7796 32.6893
9.8355 0.25 4.79508
31.2297 24.8839 28.3571
27.2719 7.84903 24.5391
31.1953 15.458 27.9818
8.98145 0.25 4.87383
30.8717 30.1525 21.3168
23.9376 14.2481 35.4798
8.14749 0.25 6.4007
9.61563 0.25 7.02926
29.3341 17.8613 1.24332
27.0894 1.72101 16.091
8.50792 0.25 7.13124
9.08264 0.25 6.43625
23.5179 21.7913 9.4053
40.2331 29.8538 28.914
7.6342 0.25 8.70292
9.84281 0.25 7.8227
27.3162 27.7019 9.16602
37.6854 25.4623 12.2367
9.04992 0.25 9.30506
8.98773 0.25 7.73281
24.529 29.7152 10.7202
22.2421 31.75 26.3719
7.77352 0.25 10.2873
9.0212 0.25 10.9053
17.0859 29.2445 28.0511
46.0677 27.6896 45.9151
8.14754 0.25 9.43786
8.67514 0.25 10.1059
24.5239 10.6851 45.8419
37.3017 30.1403 31.468
25.1774 17.0264 5.03235
30.0426 4.31649 6.61438
30.2423 30.8242 12.1684
34.3257 13.1272 17.3921
22.4336 3.21449 9.32055
46.2535 3.34649 1.86661
28.8296 14.904 2.13562
34.2674 25.8863 1.25444
27.6929 1.57918 10.4721
21.5034 6.48933 28.8922
27.8179 11.7925 2.06376
39.7624 4.37936 2.19693
26.6618 16.4231 8.80521
9.42552 17.1432 45.7955
38.1784 8.59297 2.85516
35.366 30.5723 19.4767
15.3548 2.78796 13.6112
40.1689 30.496 4.52878
7.09514 0.25 2.57678
22.2539 30.8495 4.90364
15.1605 26.9407 1.67691
29.6757 30.6302 31.0389
7.24328 0.25 3.53063
7.90822 0.25 2.85361
9.6182 28.4288 40.4598
25.6332 30.6815 4.59476
22.601 7.18565 3.45884
7.50955 0.25 4.28857
19.6427 28.8838 33.2904
22.9539 19.4363 10.1234
20.0963 12.1057 5.14732
8.18099 0.25 3.54789
45.8878 24.9949 23.4106
46.322 29.3899 14.9176
23.2024 23.1466 12.176
6.47223 0.25 6.50569
38.3175 19.1581 3.29528
46.178 28.1323 22.1247
31.9439 22.8447 10.127
8.6234 0.25 5.68983
22.3254 23.875 24.1427
47.1423 30.5691 33.7791
46.0257 28.8047 30.793
8.1144 0.25 7.90658
22.7044 28.9673 31.9301
34.5257 1.28549 19.7911
45.5091 29.4121 12.6407
8.51287 0.25 8.63053
32.3913 30.2973 7.71139
47.75 30.2591 18.0299
47.0076 5.51805 34.8078
7.22664 0.25 8.01513
5.39212 10.7629 46.6456
30.154 30.9055 19.2803
19.5978 10.4408 19.4593
2.21945 16.3428 1.92814
23.7582 9.28641 25.2943
41.9306 28.6109 14.505
44.2472 29.5786 27.8122
7.31598 0.25 11.1132
16.4501 18.2479 22.4261
34.3929 30.3754 9.2237
34.6759 9.52056 43.5706
6.36631 0.25 11.1759
38.8777 8.48194 1.37518
29.5489 27.4384 4.00652
30.9494 12.6371 4.74017
34.3874 23.5958 5.57781
18.8957 3.32655 11.3398
31.0535 13.4384 2.21325
24.0469 2.66314 1.32055
34.1849 5.58441 9.67535
41.9184 28.4156 10.9784
31.8282 3.01758 16.067
27.7725 27.3204 22.9474
29.728 9.60267 16.7697
27.0103 20.5735 1.63582
24.7579 17.0299 1.58116
43.2916 13.0846 16.1096
41.3699 6.44219 10.4612
39.8277 5.86241 6.09269
38.3024 2.4484 12.5524
45.2435 27.0115 22.7379
44.1583 1.77213 8.80314
22.8966 5.94787 6.48708
26.4755 7.71037 1.54452
44.3825 3.48144 31.9419
45.5791 7.62233 6.30683
26.279 16.58 27.2206
33.9354 16.4056 26.8289
22.102 22.8841 3.19161
21.6628 20.2922 1.7232
43.9867 11.5577 24.3465
27.1265 21.6135 27.6925
16.3186 19.4753 32.2387
40.8988 22.4119 18.8739
35.35 14.4543 5.40542
40.6071 6.34631 21.7305
44.1685 16.4143 15.6105
43.827 1.47131 14.6023
24.8117 15.7807 6.88429
19.3919 5.67534 24.2882
29.5949 8.02384 4.5829
46.8945 6.51702 10.909
17.1764 6.58268 37.4742
47.75 11.1708 17.4927
47.75 2.72316 14.526
47.0026 30.3749 3.40047
23.6171 17.0483 23.1956
35.9969 11.8678 21.705
45.6002 7.94461 15.0115
40.9114 7.14339 22.1861
27.3873 3.87491 4.938
45.9409 14.694 29.9929
44.9788 6.30031 31.6894
35.0241 18.491 13.2859
23.0436 20.2702 31.5267
46.9594 27.061 18.4
22.5719 2.99295 23.9225
42.4338 26.3409 19.0841
25.028 3.51346 29.5595
29.3338 10.5369 1.34798
45.0176 1.98282 37.4153
46.1866 18.3384 36.2332
45.8353 27.4203 29.6686
42.71 18.1664 19.2766
38.6982 6.59632 24.3817
46.8765 24.4212 18.9758
20.9898 12.1384 4.54926
33.7568 7.67585 37.4615
22.6089 16.1568 4.88568
42.2636 4.3748 12.7357
33.715 14.1118 2.37091
37.6957 21.0485 5.00967
25.303 12.4384 2.26506
41.6365 10.1759 5.98961
25.4584 27.553 18.0159
28.9785 15.5785 1.39473
45.7605 30.5536 20.4425
17.8467 14.3861 1.39156
31.0634 29.0431 1.41435
24.8163 26.672 33.2727
19.7638 16.0153 1.47313
39.3975 29.4946 13.5599
42.5275 29.7751 3.29083
28.21 10.5084 6.61071
40.058 2.29641 29.4584
31.6599 28.5161 22.961
43.5512 15.1199 4.52989
39.635 16.9331 2.7536
43.3515 28.3332 46.4261
25.0394 22.8193 21.5413
42.0747 7.52814 34.035
44.0573 30.8666 8.76123
32.6351 24.3415 6.11198
44.8304 24.9596 1.32582
38.786 10.5914 22.1199
39.6979 6.60849 23.1361
35.2684 14.4336 27.8169
40.5885 8.70967 16.6014
22.288 24.689 6.027
19.168 28.6273 24.5363
28.088 25.873 41.6982
46.3484 1.91756 19.0854
43.9129 6.87964 16.9374
31.6427 30.4352 5.48218
40.8256 21.0476 4.03847
45.5227 4.04179 23.2091
23.4923 4.25354 46.2975
40.9112 21.2339 27.6202
23.3281 28.4371 17.786
44.1978 5.54453 36.2059
21.7833 19.5009 3.55452
45.4751 18.9719 13.2932
46.665 20.8316 29.9831
46.4792 7.06147 6.76564
13.4205 16.2222 28.7934
39.8684 27.6313 30.6635
5.69124 24.5245 37.9883
45.4124 6.02556 25.2013
8.69536 29.4029 4.72646
45.521 23.9386 26.8233
20.8927 12.9151 8.71025
42.0279 1.61796 14.4327
1.62921 26.1367 45.9303
46.9422 25.6282 37.8923
1.99957 31.75 15.2358
42.5378 6.02066 13.2562
1.98492 5.75637 20.9575
47.75 16.6065 28.8416
47.75 23.9324 14.1914
43.0348 1.74949 16.7761
41.6425 18.8986 11.0171
35.581 13.1828 1.78421
42.0599 3.13333 19.0424
21.0294 11.4261 11.3185
20.8232 13.9003 6.59238
21.535 28.9647 5.7975
24.8026 18.0404 6.48123
20.4463 27.5682 3.97126
46.6392 23.4251 23.4761
39.8237 19.8914 8.19927
46.4055 14.4809 15.8172
28.5098 2.68774 5.99449
29.8218 12.9545 7.96321
18.7521 4.99999 0.25
24.4839 15.2062 9.8784
18.8528 15.0356 4.60881
42.4532 13.2673 10.0898
22.0161 21.1176 15.3359
47.027 21.846 19.392
42.5321 24.0432 2.79672
21.9096 30.7629 8.18217
46.5903 6.41203 2.9944
38.6618 14.6616 16.191
46.609 30.4608 2.55236
46.6986 15.5607 27.9447
10.9883 17.05 25.0364
45.3643 13.2403 29.9136
39.4619 9.56755 24.06
26.5246 26.4397 22.5186
38.2673 29.1443 37.3371
41.6066 10.0718 20.6063
44.9932 30.9023 20.8418
15.6606 15.2179 23.4985
45.1137 4.3743 16.132
22.2043 25.9564 15.1107
46.0486 1.33525 17.3787
4.81456 19.5671 30.9136
45.3789 16.8594 12.0732
2.18183 26.5113 30.8357
47.75 25.8197 12.4702
32.918 18.2146 7.12323
42.8925 13.6687 25.819
32.637 26.3855 20.2608
46.9014 3.3122 7.37199
22.6995 13.8472 12.6776
45.788 25.8215 17.6475
22.4157 29.6041 15.18
45.2589 21.3859 13.1924
40.4725 29.255 21.3446
47.0582 1.44191 19.3162
46.5781 25.4907 27.9083
44.5266 19.2055 8.78885
29.7994 3.97836 35.7367
41.0202 27.3683 18.8039
46.7135 29.3329 1.10279
11.8829 24.0116 27.418
39.9615 30.9361 18.8598
46.4867 15.3274 12.8291
36.2562 20.3819 20.009
40.4987 7.80222 9.7975
31.2662 22.1818 36.4759
46.7391 18.6984 18.8806
44.0931 28.4848 19.4148
33.6642 30.5571 13.993
27.2981 28.2838 4.7373
22.7065 21.4307 14.704
22.6564 30.1581 17.7814
32.9002 30.621 2.03525
12.301 13.5181 10.6436
31.5601 27.705 3.94663
28.1859 23.2753 6.21146
36.3813 30.3625 19.9709
31.0327 25.4645 12.8518
39.9961 28.5677 20.239
33.8891 29.0725 16.5269
27.3523 18.5083 9.9439
25.3885 28.1395 1.32806
38.2674 26.7376 10.5125
23.6492 30.1507 2.90681
46.4465 6.99974 5.57168
26.7539 28.8886 2.59008
45.9333 21.2123 14.6858
16.7126 25.7589 5.67915
44.6193 27.3566 42.1456
39.8695 26.3334 9.17675
31.8566 17.0737 5.49133
2.91865 29.9584 6.76298
46.9065 26.5874 3.59282
19.6658 27.4802 12.4884
45.1851 30.5736 36.2124
9.72273 28.2042 33.7199
47.75 21.9944 18.2574
35.088 29.5437 20.9578
45.7806 29.1188 26.946
45.059 27.0488 19.4897
3.04635 29.93 45.0384
23.2279 30.1816 13.2093
46.4222 11.4863 6.21875
15.3151 28.8705 4.06253
44.4642 26.9744 38.1607
23.4504 30.3786 3.08685
35.528 10.2822 12.9383
4.38687 28.0457 20.4686
46.6385 29.864 30.3256
12.2242 26.8616 9.80656
43.6848 11.2381 1.73881
8.64417 28.1863 24.239
10.9429 4.97875 1.79658
30.0924 27.6426 7.93872
40.4765 7.09795 19.3419
15.314 30.603 20.9426
46.8659 31.75 6.22559
7.40785 30.1443 36.7193
44.8713 18.2006 21.2012
15.7345 29.1653 6.63201
17.3683 4.7712 44.4301
1.35811 30.0223 20.0373
39.0114 12.3143 14.8828
24.8951 22.875 6.08364
45.8579 31.75 7.35182
8.51937 28.6885 26.8478
46.1488 18.2221 14.7643
26.4719 28.2773 11.6745
9.04343 30.8952 28.3758
3.97317 30.2767 24.7642
47.75 9.21902 7.48313
14.857 31.75 8.88398
45.4982 31.75 8.2657
19.26 28.1014 21.1393
23.859 30.5861 23.8957
19.7525 30.075 8.28106
28.6188 26.5028 13.4917
27.7987 30.5429 9.49819
30.5836 27.2301 2.2754
18.2062 29.455 2.85813
34.2955 23.8293 12.0596
23.4938 26.5778 41.1918
33.6394 27.7728 20.9909
30.8113 24.5155 4.85127
24.518 30.4634 5.32
8.89005 28.0374 12.3549
41.4553 28.2949 24.9146
14.6234 27.0759 2.7805
23.2754 26.9941 5.44288
45.2835 29.2616 5.40157
46.3502 29.7251 3.91708
6.14575 28.313 11.158
43.2724 26.6072 1.6349
10.5031 31.75 7.23753
46.8096 27.3842 2.45111
12.2802 30.0838 12.2285
19.6926 28.5201 23.0056
28.8596 29.5699 17.4809
6.90188 15.3895 43.5278
21.4013 24.8595 44.048
22.5621 23.7756 30.2208
29.3681 28.92 17.616
42.2877 30.1574 25.2536
31.3833 22.6378 45.8437
6.93312 21.3218 33.4763
45.8499 30.763 23.829
7.75507 30.3916 26.1626
44.8504 15.5245 19.5723
33.2793 26.3143 6.14321
46.3059 28.7232 16.646
1.80514 31.75 9.98436
46.3664 16.0391 6.70061
5.43394 28.0325 6.71977
45.1485 25.0696 14.3738
21.5742 30.7203 22.1037
20.7413 31.75 5.99827
27.3466 26.5739 6.84092
37.3034 27.2454 5.98874
2.64245 31.75 4.47724
19.5013 31.75 6.75184
12.1356 27.3214 5.54398
43.7358 26.2107 12.9045
9.07576 28.7045 22.2482
26.3694 28.1986 10.1969
23.3078 27.2833 8.00878
35.092 27.9297 6.16787
7.00686 15.9608 11.4478
45.5861 26.5121 31.2514
15.9666 29.6801 4.3182
44.2451 30.6944 13.3879
11.2093 17.185 3.19823
42.1911 30.3992 7.12831
21.3155 28.9576 15.1515
30.7284 28.1863 14.6993
1.09925 31.75 9.39701
43.9996 17.775 11.4069
27.5523 24.1383 22.1367
7.12541 22.9709 19.0992
15.1685 28.6319 3.37243
22.5196 27.3077 16.7236
23.1343 24.0321 3.24172
29.8896 26.0971 16.6798
18.3789 26.4482 6.0054
21.4298 26.0691 39.2391
19.2677 31.75 13.9843
14.6897 23.0375 22.8579
24.1262 30.7774 7.60669
13.015 31.75 1.24961
40.1007 18.4951 20.233
9.00488 31.75 1.25399
20.5258 29.275 2.17853
39.9322 30.1127 5.07701
16.4887 31.75 1.23834
10.7661 31.75 3.99371
41.5816 15.99 14.0809
13.1056 31.75 3.24329
44.7835 18.9986 19.2402
28.4785 16.2166 20.4979
24.0592 29.9247 20.7925
9.74327 31.75 3.50151
17.0482 31.75 4.82663
15.8831 23.8733 2.78963
17.0748 12.0589 3.72769
13.2521 31.75 5.49159
36.592 19.0095 22.2288
11.4929 31.75 4.75587
16.5038 31.75 6.76178
25.6335 29.5493 15.7824
44.2226 17.097 26.0873
16.0391 29.4207 2.53069
6.81609 23.1611 4.3286
36.639 25.3569 13.0388
43.6393 18.2883 5.0431
42.4388 26.4126 1.28052
29.4093 23.9596 5.93136
20.0126 26.8569 15.2502
17.7887 31.75 5.47126
11.6906 23.847 1.44451
23.3106 12.0539 12.2338
2.60368 22.8913 1.45628
45.9707 13.6624 4.80261
26.4188 29.5148 6.05316
30.5275 20.9053 46.458
8.53648 31.75 6.75632
17.4172 31.75 6.34302
22.4505 21.9441 12.1643
30.4617 15.5906 1.97333
16.1119 14.7966 20.9233
40.6373 13.7058 8.06649
28.6985 29.6844 6.60838
12.7487 11.797 9.10978
10.9966 31.75 8.24284
18.7561 31.75 7.4078
9.91747 31.75 8.17443
25.9745 3.39874 9.85573
27.089 19.082 7.98827
23.7582 31.75 8.9991
10.4324 21.4658 3.5152
15.5323 31.75 8.20208
30.6745 18.7772 11.4208
18.4778 31.75 8.30778
10.4996 2.25263 0.25
46.3182 6.46971 2.46852
9.73768 0.26349 0.25
29.7227 3.88137 2.80892
45.906 5.93702 17.0311
46.5231 11.8232 8.95689
25.7288 2.50168 7.34541
36.9888 20.5532 2.78778
9.72061 0.25 1.72846
9.30433 0.25 0.987973
26.8523 30.0616 3.19994
44.5232 8.14105 9.4323
8.94771 0.25 1.59336
10.1979 0.25 1.00134
30.2559 9.94642 3.56608
34.0908 2.45417 12.5484
10.0764 0.25 2.54734
10.4004 0.25 3.37531
25.4802 17.6138 3.53649
46.4886 1.31701 3.4372
10.6046 0.25 1.7829
11.2377 0.25 3.4589
20.2337 9.40206 7.65462
22.8373 4.11525 6.76503
9.8339 0.25 4.05275
11.1367 0.25 5.11904
34.8208 6.65061 1.35068
44.4971 4.17803 1.6344
10.6056 0.25 4.31668
11.5135 0.25 4.29775
9.05536 2.35361 6.14901
44.5564 13.2176 17.967
9.48374 0.25 5.64291
10.8808 0.25 6.12244
46.5486 30.8848 5.69204
25.0239 10.3622 4.12611
10.3556 0.25 5.45504
11.7419 0.25 6.03908
34.4811 10.4165 8.83287
44.4083 19.8771 6.69533
16.4643 15.831 14.7971
11.3814 0.25 6.9054
46.7135 21.861 1.75693
23.5211 12.0838 12.6361
10.0041 0.25 6.25827
25.5551 25.8986 14.0303
24.8237 8.4401 22.6095
33.654 7.11948 13.7194
9.39905 29.6465 27.4551
11.5052 0.25 7.85032
31.6563 12.8031 30.7474
33.9535 29.9749 26.9689
10.6638 0.25 7.8565
30.9564 17.9569 15.5782
16.8071 2.38967 25.5606
46.5175 19.0145 24.2492
10.3981 0.25 9.56056
11.6569 0.25 9.33214
24.3746 1.25669 44.5471
36.5898 23.2821 42.4801
11.0176 0.25 8.69748
23.564 14.4036 7.1447
11.8808 9.41109 46.9298
46.8782 20.2146 41.2468
37.1937 9.41478 8.76487
19.438 11.8892 2.46404
46.0095 22.6724 17.1149
30.6455 3.38131 2.42142
32.0544 24.4364 8.3892
34.1887 15.1162 2.23162
43.3839 3.29221 1.4616
39.6956 30.5494 6.8075
25.9564 11.287 4.37903
25.4922 5.96803 1.24833
45.7562 1.86655 14.8501
47.75 9.73113 2.47114
41.3946 6.25812 10.975
36.4823 19.4217 9.56852
37.805 17.2445 4.42817
26.1872 22.4477 9.90275
45.5532 21.2991 10.4365
43.9254 14.0142 9.40557
36.8166 30.5641 6.50843
11.769 0.25 2.68118
31.6346 3.8735 3.38701
44.9238 5.39523 7.51217
42.8317 29.9538 13.5188
10.9245 0.25 2.61806
40.6349 7.9612 7.73031
43.1744 27.8431 15.3313
42.3057 28.4134 13.9092
44.8207 6.99413 19.1998
8.47418 0.25 4.38574
44.0908 4.71112 13.8776
35.802 4.39003 2.56176
43.2881 18.529 6.29006
37.9047 29.7354 10.0389
43.965 3.61165 15.7872
46.7079 26.3429 16.7738
45.4195 23.4267 16.5347
7.7939 0.25 5.77867
39.5083 3.59025 5.09884
31.3439 25.0825 29.4756
42.5013 22.1107 10.7784
23.4179 4.17684 24.6567
41.7781 5.68779 17.098
9.62404 5.17836 35.3961
47.75 7.23206 1.00175
10.5044 0.25 6.9744
39.8563 6.47565 19.8245
28.7646 18.5517 24.7782
47.75 11.2061 9.06362
21.5304 17.6917 47.75
35.9296 1.756 16.5385
43.6483 12.8813 43.2125
47.75 9.49554 9.70524
9.30512 0.25 8.50306
45.0347 6.15385 22.7843
46.4708 1.85623 33.0653
45.9892 5.70047 18.7707
12.6222 11.363 26.8053
43.3106 3.00257 21.6407
10.4844 1.4964 41.6806
47.75 5.01799 13.2518
9.61759 0.25 10.0083
44.5952 5.84956 21.1839
46.1138 23.195 28.9766
46.905 8.88676 22.7448
45.2066 2.67095 10.3536
46.7429 30.5818 4.27973
10.5853 0.25 0.25
46.2251 8.5785 13.1788
36.6156 15.9266 12.0435
46.8262 2.6381 1.78122
44.9916 21.5239 16.3015
44.6548 9.54721 7.49871
43.1584 19.2911 11.7187
47.75 2.68293 7.75384
46.182 2.70945 5.3601
46.677 29.7966 2.17092
23.4391 23.287 4.26646
44.0905 1.48489 5.64598
46.5757 7.66663 2.88121
42.2815 9.66821 1.54444
42.4477 9.7803 10.6517
41.6986 22.9602 24.0378
32.2493 4.44884 5.61659
44.0025 13.8297 12.1453
46.6278 8.02375 10.9681
45.9134 11.1896 2.25553
46.9418 4.63147 9.00042
45.3629 30.8555 12.1544
35.5608 4.08566 9.32576
46.3856 24.5309 2.01557
31.1093 16.3328 15.4038
26.4475 10.3012 4.35149
39.3882 13.5593 8.11739
41.1739 2.76223 15.4294
35.317 17.5797 16.1048
45.5977 21.933 8.13601
42.3871 27.5548 45.89
41.1984 30.8547 19.7107
46.7782 8.8139 8.55125
40.0571 2.61249 30.7116
44.3633 25.286 43.0644
42.3493 28.5092 40.66
40.7972 21.8986 1.45911
38.311 13.1964 9.59388
31.2603 14.1249 28.4186
46.9216 11.346 44.8287
46.6105 13.2254 36.2226
43.7451 7.35807 2.47915
38.1824 4.71915 8.75339
43.7277 27.1807 20.047
44.5128 4.65486 5.07525
33.4325 16.8162 5.22559
45.2519 14.4065 25.0984
34.1485 24.7557 15.5862
28.2352 12.8418 21.9416
38.2361 5.10697 32.9471
45.9383 10.8903 26.9523
43.79 20.7938 20.0698
37.4304 23.6301 22.0411
47.75 15.7832 10.5285
40.184 25.0863 14.6224
32.4726 16.4883 31.0484
45.4286 20.9286 16.8339
47.75 8.25795 12.4997
44.4236 30.0414 28.6742
42.8629 6.84964 16.9896
42.59 14.3581 26.0343
42.7629 30.0186 8.19652
26.6953 23.4728 28.9569
34.5597 12.3181 3.68461
37.7512 27.2804 7.00345
46.387 11.7498 10.1259
47.75 13.7891 6.11158
46.4108 5.05952 5.2454
35.882 9.42027 5.64125
46.3654 8.55653 4.60711
24.3329 22.1384 2.88347
45.3166 16.6079 15.1266
31.4369 19.5087 25.016
43.9436 2.48614 21.6836
42.1803 2.34946 4.94115
47.75 21.7555 1.50268
45.4291 27.0789 2.44521
30.8429 4.17813 11.6547
46.7933 1.93366 9.66246
45.0249 13.1613 7.58325
39.7839 2.11787 9.9027
47.75 4.16319 2.05783
46.3476 19.9365 26.6409
43.867 6.71191 6.75885
45.726 11.2906 3.25457
40.5113 15.165 3.58477
45.1515 4.09778 26.2039
45.6169 13.1975 16.6063
46.6758 19.2094 17.5481
43.9234 7.07754 14.5769
42.6196 1.74886 25.9683
46.719 2.92039 16.4771
20.0659 15.798 6.60297
35.1143 22.6412 4.18272
39.6596 1.24129 6.11033
45.2245 17.377 13.0955
44.657 8.08895 12.6683
32.7609 3.50451 21.3619
45.5032 23.2361 24.7421
46.8372 29.6553 5.18976
46.6724 2.35663 18.4155
47.75 14.9918 7.2725
44.7352 13.0131 8.15635
46.285 15.5885 2.14372
46.3824 4.36041 32.0815
43.7434 6.76024 3.99009
46.1489 2.10416 24.0885
47.75 21.4463 19.6872
46.6715 10.2434 10.9494
40.6189 13.4739 1.65607
44.8058 2.09301 18.9345
43.3612 29.5299 12.5129
46.5788 10.6209 34.5425
46.7564 3.93705 12.8511
44.9561 5.34055 17.0171
42.5709 25.9292 8.96271
45.163 3.78862 19.4264
47.75 21.4266 8.21139
47.75 2.72859 22.4748
45.7484 30.8554 9.95874
45.7863 7.54562 26.7222
41.4755 6.42726 11.2686
46.1008 12.098 14.0904
44.2351 23.1869 2.74515
46.1618 9.54093 11.2172
39.7409 26.9398 12.4043
46.4532 3.0879 34.2759
22.3835 30.7088 14.3898
43.3815 22.0976 21.7118
45.833 21.9313 3.53059
21.6214 15.9979 9.70137
35.4715 13.0291 14.3195
46.3051 9.00127 14.3022
45.6065 1.61616 1.56724
37.3802 1.23399 22.891
46.098 11.7589 6.01769
46.0591 16.652 2.04673
39.2883 14.8597 14.8184
45.7675 2.13105 29.2854
32.8065 10.1293 5.06613
44.9801 21.5078 13.8166
22.4273 12.1888 3.17308
46.3496 2.79017 17.7807
47.75 9.73376 1.44259
37.0412 27.3833 8.21989
46.1161 4.03506 4.90595
41.066 2.68423 1.24282
44.3969 3.62169 4.50326
43.2926 10.999 1.46551
44.9434 29.7685 2.97854
46.235 7.49669 9.94698
42.1042 4.99143 20.1953
44.3802 13.8602 11.6879
37.2501 2.42127 42.5658
26.0369 18.5974 29.8796
26.7567 2.36453 45.7459
40.7132 1.91198 16.2119
47.75 10.2321 29.0095
32.2457 19.3226 17.2519
44.8269 27.7098 2.01801
45.2021 2.38439 3.47815
20.5046 0.25 7.2408
12.4301 26.8018 3.26095
35.2917 19.5199 21.0906
44.3586 2.58437 3.96286
37.0541 23.9696 34.0689
32.5755 28.8974 13.5273
47.75 16.5253 6.79839
41.8122 5.27181 44.3684
32.1905 3.59612 5.49769
19.5461 29.9945 11.6451
32.9025 29.7224 19.9596
43.3714 2.52999 19.9967
42.7728 2.6468 5.6759
25.2905 30.7471 8.55685
47.75 18.9177 7.2454
47.75 2.30978 11.1279
31.6474 2.95843 14.6426
17.361 30.0507 11.2842
47.75 6.24393 12.5472
46.8599 6.03246 12.2147
46.3352 3.06537 2.97526
28.7549 28.2889 10.9485
23.8185 17.0856 8.38654
40.1955 6.90038 28.9764
36.9866 10.0498 30.3598
15.8943 30.4037 9.96343
46.7606 12.174 6.33774
43.5644 7.33512 30.9206
45.0317 10.3574 28.1925
36.0841 13.8625 22.4973
39.9303 18.5168 6.85761
36.3126 29.7784 10.4723
46.7683 23.1976 19.7375
27.9383 22.6895 22.876
38.8212 19.4829 3.0238
41.9108 22.9183 12.5934
40.6051 30.4623 10.6925
46.2957 15.2885 32.8588
40.9209 30.2229 1.50301
19.2493 30.6938 33.4322
42.3876 20.6964 1.38586
42.2559 7.04327 21.5946
45.5604 13.5463 4.46584
32.2677 28.7853 33.5655
42.6734 5.89195 6.75384
35.7527 26.8588 8.9706
43.2348 5.90509 8.33627
45.7463 28.2121 3.42352
46.9101 28.5169 1.32243
47.75 16.5109 9.26527
47.75 16.5634 3.24338
45.6851 29.5089 4.37227
46.8761 12.3012 10.6421
37.0401 30.5743 20.7907
38.7596 3.9009 46.583
40.6057 1.78752 38.1975
43.2068 19.2862 30.8654
45.6393 30.4503 28.9559
42.613 28.1877 45.5896
47.75 31.2404 14.4811
44.0671 10.2872 16.5801
7.64889 30.3442 28.6873
47.75 21.7632 5.49364
45.6095 9.3038 4.14626
41.2531 27.8652 19.6675
21.3356 30.0451 12.5652
47.75 30.7485 3.00124
47.75 1.11823 8.88726
42.7056 1.26882 13.0389
31.502 30.2152 2.18799
34.7803 27.6212 1.18603
40.1857 1.62328 23.3228
43.8676 28.0553 1.39536
6.97538 25.462 17.5093
47.75 31.1278 5.5972
29.5865 8.20437 3.19357
46.4322 12.2791 9.68232
22.5313 29.823 13.4896
29.5935 25.8541 7.09774
47.75 7.11713 10.8657
45.2112 30.7709 10.7394
2.31639 30.6556 40.0749
47.75 31.75 6.50893
25.2398 9.13166 17.0955
44.3525 15.5545 20.7285
14.3363 28.8967 7.13462
38.9184 22.7098 8.5872
37.7662 1.88139 10.1511
45.1161 30.8655 8.89494
11.3357 20.9745 15.2498
47.75 31.0382 9.20053
47.75 2.80633 9.48631
47.75 1.31827 10.6508
19.8409 23.1816 10.8422
45.8171 29.736 11.0988
42.9797 28.4863 5.54764
32.9582 31.75 6.20518
18.6813 22.6227 1.80358
46.3251 30.1587 2.82819
40.4503 25.9083 1.78099
33.2797 5.07734 2.83463
15.4143 27.6952 9.1536
46.7083 20.1896 3.75499
46.758 28.5991 5.8188
44.5245 27.4326 27.4869
31.4173 27.8358 4.46162
31.8762 28.8416 7.48549
25.4184 30.4613 5.14255
39.0013 13.2059 1.4717
20.2776 30.6247 9.02415
42.2113 18.0321 13.6321
46.8257 25.3402 10.7352
42.3804 28.6843 7.63516
43.8691 29.9427 21.2968
13.7508 15.9951 0.25
25.995 31.75 2.24531
22.2337 31.75 6.49351
24.9082 27.7295 24.908
31.1571 11.6786 46.0781
6.89443 29.6845 13.5782
39.6506 7.70938 5.97895
25.0475 30.675 19.5742
45.3657 2.00631 19.2521
27.0404 31.75 11.2436
4.34493 21.7022 4.9955
40.4181 28.8501 2.43631
42.8404 30.3821 27.5675
46.5489 26.1344 19.4823
44.6796 30.7567 27.4324
30.2383 31.75 0.988897
45.1707 30.2369 3.87147
47.75 28.564 10.6917
28.6984 22.4737 15.8133
43.4308 24.9509 44.8006
42.2904 24.7956 17.7362
40.6274 26.9584 5.72013
46.2866 27.9602 20.2188
23.7627 31.75 11.9881
44.3339 21.6128 31.9166
41.7521 24.3479 2.41678
28.16 28.0216 26.9554
43.6623 14.5764 10.6707
45.4335 29.6432 18.7395
25.0851 21.2733 19.0003
34.4215 15.1365 17.8187
27.2487 8.53192 6.62215
24.7566 31.75 9.00251
46.1745 24.5718 3.89187
39.9791 25.5722 20.2676
44.1792 6.01166 8.72933
37.4813 28.9208 28.5742
46.9342 26.9854 15.8631
39.2903 7.13002 10.6206
24.2437 31.75 7.99966
46.7336 19.3119 12.9045
46.1335 29.2454 15.0252
44.4746 27.2967 8.77396
24.1605 26.8748 10.4854
32.263 27.0568 5.80723
23.2495 27.5549 6.01749
34.2072 29.6431 9.24808
24.9242 22.3312 8.10422
33.5998 25.8459 7.18684
24.1223 21.6557 16.472
47.75 30.2151 3.90775
39.4407 17.6504 16.6318
20.1482 8.33592 4.33587
46.4861 28.8022 3.48689
26.9988 31.75 1.74055
36.5891 24.6463 3.71916
38.0715 18.8499 15.4246
37.0326 24.0405 6.69447
24.0324 31.75 2.73385
39.6972 21.6316 1.60503
45.0094 23.2855 9.22387
22.4989 31.75 4.2447
38.3384 20.2903 40.9493
27.2605 24.4974 12.8912
44.8674 29.9738 3.1663
16.7311 31.75 3.94352
45.0893 26.0178 16.2319
37.562 24.9731 5.89895
27.2446 31.75 4.48964
33.0149 14.0632 13.2124
47.75 31.2703 4.00375
28.9352 30.7633 1.90178
46.6931 30.8486 5.31921
26.6882 20.3553 8.85336
23.066 3.17263 3.40199
46.986 18.5115 3.29688
46.2667 26.8455 7.17089
23.4985 31.75 7.26441
41.482 23.3701 12.3024
46.26 28.4529 6.34067
46.7755 30.4902 6.28045
46.1801 19.6509 25.3863
22.5723 8.3299 6.55025
42.6479 16.5695 2.99523
28.1729 31.75 7.94533
41.2941 6.28152 6.15642
42.0876 21.3967 1.68733
45.2193 27.2266 11.6963
46.3897 29.9054 6.62092
46.7284 21.967 25.4228
15.6158 2.29526 14.6264
20.2437 31.75 7.49916
47.75 29.2183 9.48516
44.7397 5.75993 3.43988
47.75 30.0061 7.74512
42.8334 25.5368 7.12787
46.4993 29.9871 7.05317
2.52603 1.13388 6.72584
43.7826 1.19834 7.41515
13.8882 13.7776 10.0156
47.75 27.2222 12.9483
46.3634 30.489 15.3028
38.9414 21.75 11.905
43.1672 28.2243 7.50616
46.6437 29.6109 8.37876
2.34543 22.6193 1.5527
46.6967 2.64369 18.0271
39.2979 22.1936 9.90026
40.6709 20.1359 18.0502
45.7021 5.74582 3.21839
14.254 0.25 1.99878
44.8334 5.71384 6.75399
43.0574 5.71712 18.0217
36.5907 18.1645 13.3424
11.4966 0.25 0.25
38.9772 1.89162 11.7751
42.539 5.45986 6.83838
45.8029 5.48063 1.35886
38.8707 20.3552 1.97135
43.2772 7.90937 4.67378
34.9182 4.22061 6.36491
44.258 2.74098 13.6356
11.5085 0.25 1.80191
46.7022 9.50645 2.67977
34.8234 3.19013 15.0396
46.5122 28.2926 11.9806
12.6617 0.25 2.75405
46.7277 6.40547 4.86291
38.2238 26.3824 8.88021
43.2455 23.9519 3.14442
12.1398 0.25 3.54386
42.364 12.4524 11.1308
40.9138 10.191 11.0996
39.8419 15.0471 4.12526
13.278 0.25 4.15963
38.033 10.6625 3.39631
43.3281 20.6273 10.6307
43.4133 12.9987 4.92167
12.4002 0.25 4.40369
46.1637 4.51369 4.99228
47.75 1.53244 3.36844
44.9833 8.86707 17.9598
12.93 0.25 5.33425
44.4277 11.8219 6.84969
40.0809 9.41187 12.867
38.7047 28.5257 1.944
12.0181 0.25 5.20436
43.1671 18.3455 25.8898
42.425 12.883 11.0528
28.0328 12.7613 15.1085
13.4125 0.25 6.22042
40.9304 3.66544 18.671
41.973 6.42972 1.28129
42.3607 12.785 34.7045
12.5207 0.25 6.45694
42.9948 2.7012 12.9166
28.7532 1.52027 13.9286
41.3391 27.7903 21.225
13.0995 0.25 7.23521
47.75 9.24442 10.6241
38.7178 4.05289 7.60773
39.8576 13.3318 20.9754
12.2008 0.25 7.32299
43.2208 6.14114 27.5619
43.285 5.68919 3.2765
21.5457 29.2513 47.75
13.0824 0.25 8.24235
42.6225 8.5107 17.7382
37.4523 7.06909 9.76747
44.3157 4.3131 39.4605
12.1843 0.25 8.47276
32.8794 1.74366 11.8006
47.75 5.81449 1.02151
46.8617 1.94162 2.05531
44.8139 9.80596 4.02973
43.1236 6.44346 2.84987
36.9563 16.9406 1.40235
44.9516 4.44607 12.5351
44.0462 10.6784 6.81133
36.4067 2.69677 11.5008
18.3682 5.34603 5.9836
46.6268 3.74131 3.23672
42.6173 20.6439 4.96616
29.592 4.69769 1.58561
9.1531 6.92097 6.06965
27.4922 30.667 3.60448
45.6764 10.0633 43.5309
43.9141 16.2007 3.41578
47.75 5.50024 3.81632
45.9733 17.3992 18.3251
38.5959 17.9662 7.49022
43.3644 8.38436 4.36862
34.9852 30.2874 4.50412
43.2759 6.46937 27.4097
45.3388 18.0672 13.5692
44.3204 17.7276 12.2486
47.75 4.51308 3.95935
43.8286 1.34448 8.59986
47.75 3.51753 3.77553
37.8854 11.0128 1.30938
35.0247 28.8068 5.09656
47.75 5.86459 2.03503
47.75 1.16565 11.5747
45.5204 17.0865 4.32085
30.9001 2.35428 1.83174
39.8467 6.95 16.688
47.75 1.86117 9.37125
45.6023 24.7014 9.80631
42.402 28.159 1.42429
40.9759 28.3879 21.4488
47.75 4.99614 11.2345
46.5218 8.8557 23.8569
47.75 4.56038 5.78864
43.1424 7.15 14.3536
41.3294 3.45323 28.6399
45.824 10.081 18.4369
35.8329 24.3653 6.4417
39.7804 15.1799 18.452
35.8774 19.1094 13.2996
45.4742 1.28896 6.4138
47.75 4.59709 7.21589
44.1112 8.32816 13.0491
47.75 6.2259 9.45846
47.75 12.0768 17.2622
47.75 6.33182 8.42439
47.75 2.36666 6.89079
47.75 7.11558 9.75796
47.75 1.74401 15.4705
47.75 4.17754 8.03749
45.3971 4.10789 9.44644
37.5739 20.2799 1.20172
46.7175 18.1365 23.5263
46.7589 14.186 6.06267
33.9785 9.90498 7.11861
38.1074 30.6349 1.39047
45.7855 2.96606 19.8641
15.2449 1.49995 0.25
45.4936 11.1559 16.6022
37.4509 13.7182 29.776
46.3438 7.49195 19.5593
41.4637 13.3053 1.30689
42.214 3.05583 8.31724
41.8408 11.5174 28.8858
13.4943 4.23868 0.25
39.3501 21.7879 10.4534
40.4658 11.6616 2.59579
32.8505 3.27882 3.92324
46.1945 18.2381 1.19593
47.75 6.95034 2.26081
47.75 3.82631 4.69597
38.1368 9.99979 6.18984
41.7949 16.0878 9.61293
13.999 0.25 3.24886
4.62701 29.808 15.9131
44.363 1.31356 5.22828
42.2581 22.1311 2.12331
47.75 5.21512 2.92502
47.75 2.77099 29.4868
47.234 0.25 8.34329
47.75 5.24107 6.40738
44.1375 20.4323 5.61193
33.0736 10.8553 22.8207
29.1111 19.3109 24.005
47.75 9.7651 8.47511
18.7522 0.25 4.00021
43.274 19.777 7.92355
47.75 1.42001 4.30591
47.75 0.25 9.13247
42.7685 12.7419 5.72773
47.75 4.84153 9.58994
35.5208 2.69042 1.92014
42.1434 5.40535 5.9353
18.5075 0.25 5.24871
47.75 7.24793 5.13123
45.74 0.25 5.51976
47.75 1.9529 5.08446
47.75 1.21875 6.52322
47.75 5.49257 8.86397
47.75 0.700906 9.9599
43.5673 3.22744 20.1409
18.5048 0.25 6.24794
35.8514 26.2449 34.4793
47.75 0.25 5.69445
41.0589 20.8348 14.8482
42.1841 10.1389 23.1301
24.5548 10.5305 5.20566
47.75 2.34615 8.6001
39.3859 5.48551 15.7307
18.5022 0.25 7.25264
47.75 5.13298 8.0396
47.75 1.73358 7.51157
47.75 7.52821 11.7331
42.4451 3.09455 13.2439
22.9605 8.31673 7.12544
47.75 4.1576 8.97342
40.1954 10.7489 17.1203
18.5094 0.25 8.25155
43.3416 17.7243 14.4584
47.75 0.997646 8.00886
42.5651 9.94592 10.5272
36.5517 24.3167 1.74441
45.0036 9.3747 1.23371
47.75 3.49837 10.2174
45.137 5.26928 2.62533
37.29 26.0717 44.3695
36.3638 20.2715 1.4092
32.3143 5.75531 22.6994
47.0031 8.28444 19.0912
39.6028 16.8947 7.89473
42.8994 7.83463 11.991
30.3346 27.1732 6.70897
40.9411 16.8886 1.33522
47.75 2.74984 2.0017
45.8514 5.86947 10.6267
20.4861 2.24425 6.74156
34.7131 18.316 3.48166
47.75 1.5025 1.24493
12.2312 2.31976 6.15297
47.75 6.93651 4.19016
47.75 6.01008 16.7711
47.75 2.29987 2.83878
40.4942 12.5028 7.13586
47.75 0.936 2.66582
47.75 5.00968 1.68142
37.8936 9.17872 22.5767
47.75 2.87207 4.59018
47.75 8.76997 11.5071
34.5724 19.6116 20.9924
33.7045 4.68786 9.96073
47.75 5.68431 4.77933
47.75 6.26669 10.4259
47.75 6.44171 6.86931
39.1989 21.9913 29.8206
43.9827 16.8511 9.32251
38.8523 16.8659 12.9677
2.6053 18.2596 1.24625
47.75 2.02895 6.04861
47.75 3.66905 5.61794
47.75 4.75108 4.89545
47.75 7.80445 9.06802
39.5957 2.55993 4.92476
47.75 1.17493 5.54948
38.9009 19.0432 1.90832
17.9186 1.22283 18.6751
34.899 8.31603 2.24473
40.7444 7.45626 3.53367
47.75 3.98673 6.51995
46.5075 15.9123 23.236
38.9718 14.6408 1.81554
47.75 0.25 7.53706
47.75 26.1946 8.17319
19.5906 8.17893 13.6094
47.75 0.25 6.62358
35.0282 3.35576 20.1515
42.6286 1.57752 2.90582
47.75 1.30253 12.5196
31.0346 2.8878 15.0273
46.4167 0.25 8.81232
47.75 28.4371 8.21092
46.9213 27.8376 1.61682
27.052 7.222 15.2916
34.1183 9.68545 22.8742
36.9093 7.45801 20.916
45.5527 5.88586 9.30962
44.031 20.4577 12.6175
41.3472 14.0045 17.2836
44.2098 22.2778 16.7379
45.5676 8.3312 2.86737
40.4176 1.54889 8.6018
45.7919 1.29578 2.61149
39.8204 20.8505 36.4341
44.9551 21.4418 2.84519
47.75 2.51275 3.74691
44.3648 3.23801 19.0352
40.0235 3.37073 5.93648
45.1209 13.1092 5.40444
28.4836 22.2009 36.1533
44.397 8.90525 5.2454
47.75 8.01259 2.25253
47.75 10.228 14.0003
47.75 3.96762 23.7835
40.7458 1.2034 8.00251
31.1255 16.436 1.7597
43.8 16.1088 30.4699
42.0146 30.1664 46.5338
35.4898 6.58385 12.6506
35.7719 15.8265 14.031
47.75 7.55248 8.16348
47.75 8.76058 8.50793
35.2526 14.2747 5.04292
27.2216 21.9898 24.2104
47.75 8.3096 3.23777
43.4499 1.7133 18.3375
41.4015 4.2622 5.21833
47.75 7.22936 12.6333
43.5007 3.9958 5.16783
47.75 7.76874 5.98883
26.5902 3.86775 4.69117
35.6266 23.6258 8.52515
47.75 6.21819 2.97632
36.5593 2.46418 8.76533
47.75 8.73481 1.51486
47.75 2.76488 5.49545
44.9226 4.70785 16.5818
47.75 7.77164 7.0082
47.75 6.21584 5.95428
38.1941 21.0338 5.91556
47.75 3.47911 11.2487
33.0556 16.0667 1.9355
40.3675 6.30911 37.7472
47.75 3.08268 6.35148
25.9716 20.1617 11.1012
37.6969 7.99661 3.20749
29.9502 13.4375 8.72668
36.3896 7.00952 1.3101
34.3902 4.9112 16.1381
47.75 2.16258 10.2203
36.606 18.8171 9.08324
47.75 3.50954 7.31106
27.5552 5.15728 11.5965
47.75 5.57487 7.25332
39.9066 14.615 17.9597
42.1091 3.02564 1.43495
47.75 2.5125 12.2408
35.492 2.21508 10.097
40.923 20.3624 3.9473
47.75 3.30013 8.5015
43.2168 18.4188 19.7704
41.7583 11.1356 15.1858
46.665 13.4054 7.94083
45.8219 28.4837 2.77219
41.5278 28.3917 6.50956
42.4694 24.8901 32.5607
46.5642 21.0556 4.4609
47.75 25.7732 22.4886
42.1742 16.4897 21.963
32.2504 17.9309 2.95537
47.75 16.9967 1.24537
47.75 25.203 2.45084
42.2809 15.7699 9.76849
47.75 19.446 1.80258
34.715 19.6236 1.93399
47.75 22.6951 1.03917
24.5241 12.6682 4.54501
47.75 16.9893 4.24758
37.4545 26.4863 5.85351
46.9308 29.8963 4.25569
36.1939 29.9515 21.6866
47.75 13.9547 3.24991
40.1576 30.7369 22.161
31.6683 26.5337 7.19403
47.75 14.98 3.23246
47.75 14.004 8.24732
43.2453 30.4315 3.67369
39.8179 25.7053 27.0773
41.0913 27.0656 5.07319
36.5733 30.6919 19.2399
42.4412 18.0902 1.49029
47.75 27.2425 9.99967
37.5806 17.2706 9.0435
43.7589 31.75 5.49754
47.75 18.2588 4.9999
37.3419 30.6661 16.1604
41.6008 24.8397 5.04614
45.2502 31.75 5.50523
43.7805 15.245 8.15706
47.75 22.3116 8.52395
47.75 16.1821 5.91802
41.6688 19.8397 1.93476
40.3771 28.9183 1.89241
39.6951 29.8758 6.36088
39.5434 30.729 4.97145
47.75 31.1817 10.1209
43.0443 21.5567 11.4899
16.1311 20.9076 7.79603
23.5684 22.042 6.89966
40.7449 31.75 7.34145
40.6365 28.0362 14.0763
47.75 25.965 7.22482
41.1283 29.2175 7.79601
46.7477 31.75 8.18828
41.4698 15.449 10.6142
17.2254 23.7538 7.40826
30.2395 1.76771 8.21431
35.1284 28.3312 6.30245
46.8139 30.2669 16.3193
43.8173 28.7357 6.17199
36.6141 23.7725 7.44461
29.1131 21.0492 16.9704
38.0449 23.9421 5.62903
17.3402 22.4994 8.59591
45.4444 17.9758 11.6234
42.8098 15.0137 11.3965
45.6091 30.8128 4.88963
21.9993 31.75 1.7574
45.91 27.012 8.28973
33.2591 28.9566 24.4608
46.3659 29.3932 4.3798
31.498 31.75 4.74545
46.5316 31.75 11.7105
32.264 30.1468 3.31269
44.7562 31.75 13.4965
36.3355 25.1006 4.02778
46.6886 29.9537 1.48155
40.4634 27.3737 1.89726
8.26371 28.4655 9.31881
47.2535 31.75 2.41473
37.3804 22.5719 14.5687
46.2419 31.75 5.48697
45.9114 28.6314 3.40736
38.9675 23.4611 16.5894
44.5194 26.708 17.3555
39.8266 21.6529 2.32781
32.8608 28.7225 4.92061
47.75 31.75 11.9361
40.5689 30.3688 8.13638
36.2229 23.6962 28.446
44.4818 24.6766 3.29517
25.9962 31.75 4.26706
46.5446 23.0802 6.8856
47.75 25.4856 10.2735
36.7276 30.7343 5.06617
29.6077 25.2869 5.10023
24.6475 23.0929 3.54432
27.4953 26.7407 17.1912
47.75 30.4987 6.27669
26.0011 31.75 5.25315
47.75 16.0045 1.22822
40.3727 26.1074 3.43392
31.1856 29.9364 2.70076
31.8704 25.9219 3.84212
43.8865 22.6261 2.29958
47.75 29.7771 5.52038
44.6578 30.3105 10.2208
25.5011 31.75 6.24968
39.4058 30.6974 5.74705
44.1586 5.16048 3.01686
32.756 28.1559 8.77886
35.9735 16.9148 1.29638
47.75 29.6886 6.73535
47.75 29.0524 7.40794
47.75 30.5005 12.7506
25.4939 31.75 7.24896
39.0843 19.3723 9.94269
39.3272 19.7134 11.057
22.8017 29.2405 7.92764
46.8309 31.75 7.21957
47.75 30.1782 8.85262
47.75 29.3208 8.47337
41.1251 28.9897 6.54406
25.4977 31.75 8.25187
47.75 19.4228 8.25128
40.9994 31.75 8.27032
30.0877 27.2075 6.8822
44.3059 26.7489 9.38739
28.4298 24.2973 4.72637
45.3804 29.5044 9.05043
40.2887 26.4183 3.96666
47.75 26.8169 22.558
30.3645 22.6642 12.3981
30.6378 30.0943 3.06814
28.4747 27.5202 3.97078
24.6152 16.8692 4.26543
47.75 27.9839 11.7886
42.2415 26.1776 20.4843
43.6699 22.3086 24.6638
41.4201 17.0054 6.96888
45.2327 27.305 8.50483
46.7762 29.2339 20.4855
45.0126 27.6348 27.162
47.75 29.2166 1.47016
24.5045 31.75 6.25295
47.75 30.8333 7.19923
41.17 19.6402 10.3311
31.7017 10.2247 5.05079
46.9565 29.6264 12.9274
43.5552 30.3323 5.6772
39.7712 22.01 12.7977
32.7427 31.75 3.99919
23.5086 31.75 6.26781
40.9154 27.6053 21.2209
46.2638 23.0803 4.22589
31.4956 31.75 5.75462
47.75 30.4128 10.8617
43.0887 28.8751 8.59137
46.1292 30.8534 3.89652
33.4919 31.75 4.73788
46.8629 26.7436 2.75399
39.2197 23.6635 24.3329
35.6031 28.2022 7.90516
23.398 4.14731 1.81658
47.75 31.75 4.91637
42.942 22.3084 1.90474
44.4439 18.6745 5.33539
37.0019 31.75 5.25922
44.7352 29.1149 9.43067
46.0242 30.641 8.29745
46.8013 28.8036 1.86023
31.6387 6.7649 17.4727
44.4927 31.75 6.73673
39.696 29.2294 7.41841
43.1246 29.6087 3.71698
40.2531 31.75 6.48599
46.822 21.5554 7.64837
47.75 27.0097 7.2571
44.3664 20.8349 13.9777
35.6829 1.06092 10.6186
33.9451 21.0739 16.0535
45.5563 25.8364 5.32146
42.3678 25.6963 8.45924
37.0044 31.75 7.24326
46.2836 23.9278 5.71663
36.4324 28.5299 11.0306
22.8935 31.75 8.24398
31.4971 31.75 8.24977
27.1231 29.5943 7.68547
38.6759 18.9257 9.60075
45.7478 29.1218 8.58308
37.0036 31.75 8.25171
0.25 0.25 0.761679
0.966417 0.25 0.754722
0.25 0.978025 0.931098
2.2203 2.54137 0.25
0.308834 0.25 1.15736
0.859453 0.25 0.25
0.279828 0.268342 0.25
2.9885 3.06432 0.25
0.25 0.25 2.12766
0.91794 0.25 1.60934
0.25 1.08273 1.78488
14.8354 20.7282 4.25732
0.254968 0.25 1.80146
1.74379 0.25 3.11936
0.25 1.61363 1.2451
15.3812 27.6301 5.23924
0.25 0.25 3.06641
1.03306 0.25 2.94119
0.25 1.13236 2.48497
6.78789 2.73133 3.70613
0.25 0.25 2.71868
1.05773 0.25 2.04361
0.25 1.70837 2.65304
2.01541 26.3785 1.90341
0.25 0.306776 3.98507
1.06318 0.25 3.557
0.25 1.90359 3.98635
0.25 1.02048 3.1115
0.257349 0.25 4.99885
1.83521 22.5271 8.76196
0.25 2.45313 4.27715
12.5891 9.15685 8.04016
0.25 0.279218 6.10208
0.985586 0.25 4.2302
0.25 1.37316 5.35179
0.25 1.75342 4.39431
0.25 0.2603 6.86186
0.25 0.25 3.71693
0.25 1.01813 5.64603
0.887089 0.25 5.07799
0.928473 0.25 6.15836
0.960888 0.25 6.90468
0.25 0.258605 7.91946
0.25 0.992109 7.07995
1.18828 0.25 5.70725
35.9946 2.40173 11.7993
1.23841 28.1267 1.99728
0.25 1.76605 7.30299
0.25 0.26762 8.2419
0.25 0.263684 7.13915
0.25 0.25 9.39404
26.8494 7.58653 20.6727
0.25 0.25 9.03217
0.25 1.73197 8.87065
0.25 2.3804 6.33372
0.25 1.72488 8.2853
0.25 0.25 10.8142
19.2066 16.2657 43.114
0.25 0.25 12.4165
0.25 1.02357 10.9941
0.25 0.252345 11.6584
0.25 1.02854 10.1286
0.25 1.9359 11.3287
0.25 2.65595 9.56101
0.25 2.16726 0.961642
1.31556 10.841 3.07917
0.25 3.40167 0.25
24.476 28.3171 1.5075
0.25 2.58407 1.52626
2.83788 22.4903 2.64465
1.15196 2.65721 0.25
1.18178 3.56514 0.25
0.25 1.50713 0.793257
10.515 9.71702 7.70356
0.25 3.16254 1.40582
9.54442 4.22509 1.4447
0.292299 2.50152 0.25
24.7931 11.7771 1.35363
0.25 2.59405 2.32861
11.9214 20.4496 9.59596
0.25 1.59406 3.17327
24.4988 16.747 7.20885
1.60443 1.88737 0.25
17.8179 20.3693 5.1395
0.25 1.6116 2.09422
21.6494 12.0965 7.03537
1.67862 0.25 0.25
1.80455 21.2532 8.61485
22.8568 20.4438 18.2373
19.9869 14.2232 27.3948
2.44163 19.9741 3.96289
5.65733 22.6991 1.32388
14.2624 14.303 3.78176
25.2582 20.5762 5.61857
0.25 2.51886 5.76138
2.26316 0.25 4.89219
35.2809 8.76121 27.1785
31.943 24.5684 46.064
17.6913 10.1821 3.11908
1.78991 30.8406 6.13344
30.5492 1.299 27.5126
8.8132 23.2232 39.1601
0.25 2.40108 7.20108
19.2248 25.3096 6.26463
21.9205 14.8163 36.67
31.0531 9.62355 26.4124
21.267 6.67016 9.35015
22.2673 14.9358 1.28746
9.99101 30.4743 19.0585
33.6745 30.0757 17.187
28.5671 7.91844 1.61019
20.3237 30.6804 9.28224
17.3036 29.2475 23.0508
1.38633 6.95292 32.1737
0.25 1.71587 10.5008
18.6769 1.62891 26.7229
18.697 29.9353 20.1948
16.6332 11.2008 14.786
0.25 0.947939 9.30766
19.899 29.9903 1.56367
9.24012 15.6394 47.75
0.25 5.09152 11.886
1.04256 0.25 10.2037
16.7034 18.0631 39.2877
0.25 4.18139 11.8024
31.895 1.71436 44.7057
0.25 1.13295 11.8215
0.25 2.00446 13.048
0.25 3.03497 0.929171
21.9206 6.88264 2.07875
0.25 4.94734 0.25
3.62787 0.25 3.00644
0.25 3.57883 0.880603
20.0836 10.849 1.94351
2.78318 4.07703 0.25
10.7634 27.2046 6.27699
2.17245 0.291866 0.25
15.3875 14.1864 7.5944
3.59176 30.1798 18.5599
13.439 18.6168 5.25674
5.23485 16.5899 8.84375
6.62109 17.5571 1.66746
13.4809 27.6271 7.16871
1.36364 23.8419 1.25608
0.25 2.9943 4.3643
33.0752 28.2223 4.97745
0.25 5.6706 2.85366
22.4127 15.7595 3.99565
0.25 2.38295 3.02417
19.1636 17.829 13.8055
0.25 5.45893 2.28831
20.212 8.9102 9.52056
0.25 3.62653 5.04774
15.4332 8.40299 46.7867
0.25 5.84648 3.74516
12.3774 20.8934 5.0119
4.38895 18.7734 5.67215
10.4803 18.6096 3.99675
28.9994 2.16859 13.2512
6.61014 18.8403 6.04123
0.25 3.88136 6.47014
17.9736 30.8213 20.1179
0.25 5.63378 5.73229
12.731 1.80545 31.2198
23.4419 6.35978 3.04693
32.4729 1.47172 20.3614
0.25 4.4032 3.98734
37.2083 21.5597 12.8332
0.25 4.65323 6.69358
34.7234 11.5728 42.633
0.25 4.78459 5.80452
13.803 22.3749 23.547
0.25 4.57318 7.38021
21.0383 7.24533 12.1357
0.25 4.14668 5.63728
22.7641 15.2364 25.4226
0.25 3.68939 8.02177
44.7162 16.5877 35.6151
0.25 4.98657 8.82086
11.9263 20.7395 42.9874
0.25 3.16934 8.28106
21.5927 8.35075 38.3344
0.25 4.20387 10.3509
4.28586 17.5694 12.9499
0.25 4.7081 11.086
45.7251 25.9131 27.4131
0.25 6.89373 10.0595
26.1203 20.6187 45.2604
0.25 5.08668 10.2599
33.7411 3.46821 36.6524
0.25 5.98447 10.1799
19.6925 20.7187 46.6163
0.25 4.50752 0.827578
12.1313 19.3865 2.05943
1.18085 4.50106 0.25
17.8067 9.31118 14.236
0.25 4.02111 0.25
5.60167 25.1195 4.19245
2.06577 4.79147 0.25
16.1688 16.5415 14.8826
23.5037 19.702 3.65619
4.44643 27.1526 4.194
24.8225 25.2025 7.56776
16.0183 18.6891 4.6572
25.8568 9.05129 2.65177
15.6996 1.31983 16.2035
12.0665 19.3611 1.3464
15.174 12.7449 9.59985
0.25 3.67814 2.12134
10.5306 30.7602 28.8105
0.25 4.31327 3.43721
25.9785 17.7001 5.04492
0.25 4.75916 1.27275
5.73621 17.4876 1.60489
0.25 5.00533 2.68223
9.04908 18.0287 7.00912
0.25 3.09674 3.19837
8.71917 11.4564 5.60942
16.7827 30.3759 1.35647
16.4639 3.47768 13.5582
0.25 3.92231 4.48392
10.6035 13.0098 3.60912
25.237 19.0598 11.8681
10.0206 29.672 8.05402
0.25 1.73514 6.68884
14.1238 19.8166 13.0711
0.25 5.89372 5.23874
20.6577 30.3106 16.2059
0.25 3.23769 6.60305
12.4062 14.7378 7.08371
0.25 5.25273 5.16604
7.53384 29.5426 10.6805
0.25 1.79527 5.74796
28.726 7.76857 21.8118
0.25 6.27021 6.43343
1.21 29.3242 25.2936
16.9492 8.26694 1.5384
17.5446 22.6275 31.206
0.25 5.33739 6.68741
20.4185 24.4375 8.09764
0.25 2.37658 8.80562
21.7033 10.1865 39.9475
0.25 5.82984 8.73413
6.66482 23.9882 22.9097
0.25 3.21814 9.06257
39.5855 30.4717 47.1189
0.25 5.53817 9.55103
13.5243 29.991 46.2539
0.25 1.84435 9.82005
21.7626 5.5085 40.966
