5.05708 13.0941 15.6308
5.53736 4.91297 13.3171
1.85676 2.04115 14.9381
3.84926 0.25 5.76622
6.97112 6.68334 19.446
12.1459 5.20879 4.52853
9.35676 9.36879 13.4453
4.32112 0.25 6.77978
4.13726 16.0729 26.9798
14.3045 6.89666 15.1215
10.4806 2.99113 11.6776
3.73976 0.25 8.20397
11.1377 9.38389 13.1906
11.2964 10.0007 15.6256
6.7258 11.9692 7.68869
15.0927 8.44562 2.87911
10.3771 6.82981 24.7471
18.2595 7.96227 28.8467
13.4454 2.97874 17.1929
4.18207 0.25 9.63128
7.86676 10.092 16.8096
9.75783 10.2218 17.4803
9.06587 6.98147 29.1715
5.62506 0.25 9.09256
1.25007 3.08896 1.41843
14.9205 3.0948 9.906
9.17281 10.6555 3.52647
11.0452 7.40099 2.18105
12.1994 1.9936 2.62587
12.6794 8.44133 2.48284
1.41402 5.56724 4.18229
11.6684 7.36647 5.74886
7.82836 8.99735 4.54471
6.67755 8.95377 4.27935
9.83111 15.6787 3.22144
11.4484 3.91449 47.75
9.4053 6.44749 2.9427
4.56329 13.3381 5.37607
1.90831 6.40844 1.65145
19.7802 13.4747 44.4421
0.276686 1.50127 0.25
1.2286 4.74919 1.52817
7.54568 12.597 1.29645
2.26052 4.163 7.34943
7.1039 6.10789 1.20136
5.1644 15.9363 20.3725
9.55909 5.65095 7.96243
0.25 3.08247 4.83252
0.25 0.930371 4.34881
6.16158 4.73531 20.1531
10.4728 2.80871 8.32322
8.52734 11.9309 10.3867
2.15668 0.25 5.84548
3.87848 4.45499 2.47049
16.7512 2.50601 2.24746
9.17153 10.4338 5.95069
0.25 0.25 6.0193
21.4514 11.2351 16.244
7.02589 8.27648 4.75829
15.122 13.2402 13.1074
1.55945 0.25 4.38744
8.37687 8.81548 17.9436
10.7422 6.74762 8.55413
8.64622 6.35901 23.2733
6.89449 20.0427 1.77064
15.8349 5.01969 2.36768
2.9015 16.2224 17.1175
11.0654 21.4423 36.6111
1.61453 0.25 7.17335
2.09336 8.3694 7.7757
9.01132 1.88179 10.3695
28.294 16.9139 27.0658
0.25 1.72112 7.85123
9.54903 3.74784 43.179
1.93476 0.25 10.2652
19.8836 11.3273 25.6445
0.25 0.25 7.65588
10.1873 8.60785 7.28607
3.94697 0.25 8.75969
23.9946 9.69324 13.9249
0.25 2.44002 10.3136
1.8068 3.96001 28.3578
17.9534 1.44804 27.5689
17.5648 2.17941 23.5985
1.13892 0.25 10.6292
14.4665 12.2585 24.4951
3.13266 0.25 8.6595
9.08774 6.89204 18.0316
5.54293 3.62672 1.48399
8.80936 3.68513 1.54823
5.60444 9.13907 1.93483
7.00732 8.1027 1.22306
6.88012 5.57052 8.45533
2.67118 4.33305 2.56813
7.61145 11.7605 2.15717
4.78601 9.18911 2.35869
13.5752 8.887 3.22288
12.3276 10.6261 5.30327
4.39693 9.38671 3.20503
5.48845 16.7223 18.562
7.18085 9.48048 1.48403
13.265 3.57649 3.88907
9.28434 19.1242 2.05973
7.51297 8.55281 6.78876
9.83589 7.08231 3.5223
6.96463 14.1163 6.25553
0.25 5.3168 3.49235
17.518 8.40817 9.581
2.75055 0.25 1.21677
3.17001 8.42186 2.25386
7.39703 11.6092 4.92027
15.0035 15.4255 7.76243
3.79532 12.2889 3.77518
16.7614 2.76265 9.02579
5.49411 10.9172 6.64073
5.85967 8.34022 4.65128
6.82027 13.4771 11.5398
15.3235 6.63593 7.44546
3.47831 15.3087 1.34771
11.9496 5.38098 11.1848
5.94846 3.51411 22.3645
7.67235 16.3536 2.15156
12.6367 9.8897 25.4702
10.3703 21.1638 1.29264
1.58902 13.0756 6.2017
9.38334 6.85174 8.68982
14.5498 18.5053 6.24086
0.25 0.25 6.76983
1.59235 13.7692 11.9494
6.76265 14.3102 7.57877
13.8691 11.5649 7.46144
1.72756 9.64206 17.795
6.31814 15.049 21.9353
10.5055 10.0978 20.8289
18.6957 8.22591 14.6203
9.69101 5.89191 23.376
0.25 3.99616 6.27739
4.87998 27.1338 16.9444
6.96917 1.39275 17.8165
8.51067 18.4704 13.3701
6.53567 16.9953 7.21058
13.9334 30.8677 19.962
16.3395 3.06772 30.9183
10.7826 10.0978 16.9198
7.09133 23.3508 18.3608
2.7957 13.8687 17.4329
2.41073 6.42837 18.1145
11.2557 9.45138 24.5699
4.66384 24.5029 26.6737
13.0467 17.548 26.2722
15.6495 6.82228 15.8452
8.90964 9.50801 18.4349
9.70847 10.2377 2.67919
7.27704 9.37354 2.28853
12.0167 13.8163 7.20412
19.5014 15.3813 3.78855
13.0275 1.34132 5.63166
3.82033 13.3093 2.92537
2.26959 12.9514 3.01049
1.62276 24.4025 13.192
11.5547 5.45111 6.6326
20.6885 16.8954 9.13506
22.3868 9.14189 6.84816
3.42087 16.16 2.01058
10.5808 12.7769 10.6069
12.0133 7.13897 13.8347
14.6019 15.4537 1.69377
7.46737 11.2758 5.03768
2.37054 10.6267 4.83441
5.9508 10.8862 3.54227
0.25 8.16376 1.13315
10.9555 20.0681 10.9472
3.62363 9.88755 1.96575
6.95304 9.25292 8.33804
3.17765 22.7201 3.49374
7.44998 19.6309 7.75563
9.69382 5.65408 7.6397
8.29192 19.4458 8.18028
0.25 5.21355 6.44454
8.28453 20.0221 12.51
5.74052 6.28008 2.06861
5.54786 24.0353 11.8183
9.34019 20.2309 24.05
6.32294 16.9012 14.0987
11.9848 15.9295 7.865
3.0371 19.3436 6.92329
1.31732 7.61353 2.11855
7.8253 24.1532 20.6036
16.7179 12.698 13.4142
2.32112 26.425 14.9156
4.6665 18.4856 3.46302
3.21888 18.9322 9.3627
12.3154 8.66086 19.8041
2.37745 11.9839 9.95784
9.15481 13.6606 22.5911
1.66425 20.4143 18.665
6.70201 10.3785 3.419
5.12534 6.60933 6.94121
7.69305 19.8254 12.2833
16.8784 31.75 15.8148
12.9954 14.2746 12.8395
1.3595 6.13352 14.5958
6.81509 12.5186 3.87842
8.5293 28.3248 7.24707
1.51474 1.64702 25.6773
4.28776 13.4204 21.9603
3.86063 28.1064 9.74946
12.7392 30.3321 8.29724
1.27469 2.50569 24.7572
9.155 1.40421 16.5369
8.774 23.5079 24.8555
16.0182 18.7117 10.8688
7.6982 6.88109 30.087
2.74089 8.94072 23.015
12.7633 23.2241 16.551
15.7577 16.2649 15.62
3.00584 15.3823 1.50569
5.90754 13.5529 1.7375
9.48041 13.1589 1.96653
7.75338 20.5103 1.59441
6.70157 15.7943 7.65865
3.45896 16.2001 5.69468
18.2177 19.1572 2.45789
5.98113 20.4876 2.68233
3.37127 19.6385 3.5644
9.40133 14.3922 12.0977
12.9729 14.5187 5.41647
5.67221 21.4819 1.96811
11.8599 14.7656 2.1342
4.22904 6.95414 10.0776
10.4994 12.4765 2.8192
1.75839 27.3805 9.57676
3.95931 15.1371 2.9536
5.27292 25.6965 5.86237
10.0183 18.6409 4.02261
1.32842 20.4981 4.67004
2.09304 18.1318 4.87442
3.27889 27.2395 16.2855
5.59939 18.7224 2.40452
4.97437 30.9503 3.60757
2.2293 18.1942 25.28
12.0212 18.8019 12.8641
9.54038 21.215 12.5376
4.65745 26.5257 7.0669
15.5643 3.74775 11.124
7.56285 22.7749 14.083
10.5923 19.3415 15.8044
4.2638 23.9005 8.46875
8.2903 15.7559 7.77627
8.38758 30.0312 8.18071
4.17509 22.4439 15.5542
1.68928 22.9501 7.06759
3.71152 8.49006 12.895
5.21677 25.1754 7.17409
1.53225 16.6422 12.8353
4.41303 24.7628 10.0127
8.64713 9.88345 19.2248
2.92604 25.2439 16.6311
3.75394 15.603 5.47696
12.9177 30.7123 14.3124
7.56874 17.8645 2.18805
7.46148 20.6025 10.0922
11.212 19.8215 7.59839
9.78969 30.7061 2.95746
6.11468 15.0796 28.4882
11.1236 30.1245 4.54875
1.47324 18.0133 21.9309
2.34986 24.9718 18.0067
8.36758 12.4084 14.1426
6.70177 30.3304 5.945
15.4455 19.2302 4.93549
18.9267 29.7769 6.36717
4.94812 14.4007 6.81501
1.48722 31.3554 15.2265
2.43511 28.047 13.8218
1.30178 29.9073 5.47614
6.37148 3.35142 25.5891
7.3135 21.4886 10.4602
4.89629 30.7332 18.1307
9.34378 30.5252 24.1786
13.8943 22.2376 3.17249
0.25 9.429 0.25
9.44768 30.0605 5.59422
3.82258 31.75 4.75025
3.22695 20.7224 2.43847
7.54987 30.9406 6.86651
4.48095 25.7099 3.0381
4.34008 30.4115 1.72237
8.05004 16.5593 2.80961
12.8773 21.2209 8.08262
1.9083 31.75 6.50518
5.89217 30.7871 8.32987
3.19043 24.5106 1.85169
2.96518 19.6501 7.74
2.08256 30.4037 2.00731
2.80141 23.8806 4.13631
3.0355 12.6714 3.37603
15.2063 22.6754 4.33431
1.92807 28.9214 4.43558
8.49433 28.7449 1.33229
10.0218 27.3382 6.41883
3.91902 30.9649 10.6986
1.27627 28.0962 2.11018
10.2004 30.5849 2.91094
8.18659 21.174 17.8433
8.12654 30.9754 3.39177
5.64056 12.6445 4.18388
1.44809 28.9997 5.57116
2.25219 19.127 5.34554
5.46457 31.75 11.3406
9.55793 20.2282 10.8084
7.74615 30.62 7.88007
7.80062 26.3458 14.7854
2.56731 28.3539 9.62137
6.33669 21.9785 7.67541
3.74333 24.855 8.42049
1.68408 13.6578 7.73751
6.80165 24.0542 26.0439
3.10662 13.1419 3.09302
2.10617 27.5721 6.50811
9.84336 19.0589 17.4658
5.11104 29.3228 16.5533
6.70908 18.5792 10.3964
1.42334 28.3776 8.28047
3.50898 15.5004 13.2231
4.31539 31.75 6.95545
5.23796 16.8611 11.1316
2.77633 30.727 15.7813
2.28213 19.4535 8.58864
1.4518 25.2653 10.2667
8.5095 25.3521 21.7333
8.13601 30.2266 8.38094
9.40751 18.4233 16.9784
0.25 13.8611 7.55069
1.64022 31.75 7.22526
1.73704 28.573 6.71265
3.68452 17.7601 13.4964
5.89388 30.9383 13.4278
12.1127 22.4305 18.6224
3.73332 30.6821 9.61227
3.4459 19.2493 12.3126
0.25 14.495 8.26917
3.48417 26.3565 23.82
2.04403 28.5529 8.86928
6.18685 25.0917 7.13979
1.7019 31.0526 3.13995
10.1368 30.6571 6.53438
3.38794 26.5922 5.56743
7.85288 26.6692 4.11699
2.10055 29.713 1.23415
7.91334 29.1792 5.02769
4.2152 31.75 2.89728
3.20094 30.6717 2.22147
4.93692 30.7697 2.16397
1.2715 28.9814 1.55993
1.51886 31.75 5.04795
3.20991 26.0476 3.34858
2.21852 31.75 5.6261
2.9418 31.75 1.98446
0.25 31.75 4.51806
1.21776 29.075 12.7254
8.34703 25.4524 3.85656
5.22847 31.75 3.13451
3.19002 23.9045 2.66369
11.3 29.5785 6.24959
5.63038 28.5175 32.3163
4.99311 19.0349 3.95539
1.41879 22.1306 4.40334
3.39753 30.6143 10.307
0.25 23.7627 4.6135
5.91282 30.7551 4.03145
8.03961 24.2349 7.98816
7.66619 30.3492 1.91118
1.25085 31.75 5.93517
0.25 18.0513 4.2059
2.29107 31.75 4.74026
3.74863 30.2496 8.52918
3.6228 22.6357 1.66377
9.62021 30.7047 4.64162
6.89632 26.5268 2.1583
3.19941 28.7413 7.74222
2.70271 26.5628 7.93112
0.25 17.9437 5.26043
4.15895 22.0273 1.35575
5.08139 29.6511 8.67931
17.0831 28.3859 19.6427
10.3612 31.75 7.32119
4.21802 31.75 6.23534
6.44882 31.75 7.94229
5.01248 29.3147 4.89255
0.25 17.9309 6.25917
8.12737 25.5325 10.2685
5.60159 28.4109 11.3103
11.526 20.9047 2.29273
5.8022 31.75 8.55057
3.56558 31.75 7.40611
9.79342 30.2257 11.1595
0.25 30.7998 7.39031
0.25 17.9371 7.2535
17.9348 23.5373 10.3781
2.42765 28.3712 9.43253
3.48879 18.9752 15.7645
6.70578 29.8373 12.8564
1.70039 27.4442 0.993396
5.08875 26.3765 12.1134
6.86899 24.0553 15.9014
0.25 17.9289 8.24896
21.5864 28.3563 14.293
4.44224 0.25 0.797344
4.19255 1.99798 0.25
7.76295 4.81794 2.27632
1.94723 17.6657 15.6109
3.66066 0.25 0.25
4.48826 0.25 0.25
17.9417 1.50526 1.8997
4.78019 3.09005 0.25
2.46985 6.94319 5.54793
15.2865 3.8683 3.56
9.99304 5.64833 1.25476
11.5306 5.13375 4.63079
5.69073 1.79933 1.26399
12.3977 8.21684 5.67233
10.9896 3.77719 2.2274
15.4945 9.0575 3.72962
3.21273 0.25 1.48944
3.10398 6.61841 3.16622
9.01659 2.1915 3.59002
1.66635 10.6099 1.81121
4.54043 0.25 1.58153
8.69657 6.37357 8.44643
12.9745 3.32297 1.53727
1.86889 11.7486 1.99204
2.47831 0.25 3.62381
11.773 13.6752 4.75772
8.15405 5.48552 7.57321
6.07044 5.11415 5.61108
3.35538 0.25 5.3805
10.4052 12.4766 4.86469
4.14092 8.04271 10.4115
5.50942 7.07728 4.31204
13.8588 6.67406 4.47828
1.58079 8.30709 9.39953
1.78852 5.36292 13.5453
13.5244 10.8696 2.82293
9.55571 4.44966 3.48705
5.66553 4.42432 11.4097
3.01401 8.33989 9.19871
15.1879 10.2916 10.0138
8.44939 13.977 18.9602
17.9099 13.0667 13.5205
1.77557 4.99374 19.4707
13.3873 4.47942 11.835
5.8705 17.2265 16.7393
13.6411 1.78598 14.3435
1.8331 4.54378 13.0233
15.3752 2.49687 8.3787
2.37509 0.25 7.89676
20.8933 10.8768 7.90801
10.0467 8.05003 26.9544
2.5199 5.54206 39.4794
2.42262 0.25 8.51803
17.8242 9.71042 14.4919
5.42428 13.3792 26.4767
2.29218 1.61599 27.6302
3.53502 0.25 10.2039
22.7185 14.9681 21.6131
5.31799 3.47738 27.9343
6.83985 19.444 28.3238
2.73425 0.25 9.93132
21.823 20.1635 22.3862
5.16741 5.80765 21.078
16.2973 6.08198 28.8052
17.4059 1.23138 1.49694
9.66251 7.09584 7.22692
18.0638 2.08593 2.95877
13.123 4.65937 3.5274
10.001 10.9646 10.0896
11.4485 16.4062 8.05386
11.5129 3.2827 3.86619
11.7174 3.49221 2.23307
14.8388 4.88225 2.75037
8.37925 8.00762 3.23009
11.3116 6.31445 2.63137
16.2615 4.03892 1.66955
15.4695 8.47939 5.26749
12.1758 7.55845 4.87343
10.8462 7.07324 2.32031
10.8247 4.82536 6.0384
10.4547 4.97445 10.6393
12.6341 4.86205 6.03155
11.0815 7.79968 7.01698
5.79333 0.25 0.882074
1.37067 4.19146 2.03983
15.531 7.3227 5.35908
3.78769 0.25 1.96187
6.44398 0.25 0.966172
11.9861 7.39835 8.06302
14.3766 1.2936 6.06942
3.95876 0.25 3.7648
6.68281 1.83675 3.8377
13.596 4.88928 13.3158
20.5492 6.18299 11.4977
3.66723 0.25 4.39294
13.9461 1.99114 8.41639
22.4015 10.7619 6.21038
9.10921 8.98698 10.2485
0.25 1.74708 4.75517
5.87375 4.73706 17.3586
20.5642 5.37927 19.3252
23.4843 1.97492 7.48946
2.78737 0.25 3.98495
7.29415 4.90903 8.9758
17.977 6.29576 14.7902
11.8566 10.6397 1.77846
1.87228 1.99095 1.21613
7.6002 6.50037 10.3413
17.8951 10.8417 12.9454
14.4835 5.9369 13.0972
1.60943 0.25 6.38439
8.04591 6.49115 10.4281
17.992 23.6051 10.1533
13.5173 5.64594 18.5272
2.17061 0.25 7.19736
10.1166 7.09379 14.1473
27.9178 10.3341 19.6852
10.0502 0.25 7.73422
1.68962 0.25 8.65605
11.714 4.98372 8.89748
17.944 19.8757 12.3907
12.184 12.7684 18.7467
1.95859 0.25 11.1459
14.5948 3.72626 4.82271
18.9201 10.8151 19.2543
26.2763 7.03035 17.4565
1.71456 0.25 9.6141
0.25 0.800761 12.4535
9.74824 1.42404 3.36118
10.9872 4.84763 2.12154
8.86106 9.11301 2.6633
10.8311 2.26658 4.81639
10.164 10.588 3.75034
11.6367 9.78667 2.69493
6.3367 6.37741 2.49528
12.1705 1.29507 2.82694
10.6126 10.5454 1.78963
6.6201 10.3334 2.76998
14.3422 13.4507 16.7284
3.65734 15.0569 11.4133
14.8967 7.61063 1.85365
3.72734 2.97125 10.9449
10.6122 12.0542 7.82392
2.96766 9.40761 16.0673
10.0454 2.52394 3.82445
5.9772 0.25 3.06425
13.0833 7.14703 2.57591
7.6776 1.2407 3.37763
10.4881 2.89339 1.21913
18.5025 2.17249 3.47401
12.1838 2.83412 3.33612
13.9914 5.73129 14.6006
19.8499 5.15006 1.67427
16.7449 2.94795 5.36861
20.7319 24.7396 20.2825
16.0886 24.2143 11.5528
10.3586 5.93131 8.57199
12.9002 2.78909 14.2823
14.3314 15.5513 7.25665
5.97823 3.40018 1.30159
6.09701 3.29117 2.14359
12.3741 9.07855 9.93642
5.76366 8.23762 7.72208
12.6958 14.2688 13.9646
5.56901 13.8923 20.8971
4.15453 2.2209 5.20175
13.7695 2.39696 5.68163
8.2486 1.59334 7.51111
2.58866 12.0053 12.3443
6.12297 0.25 5.85036
5.1644 3.9512 22.8289
4.69659 14.4798 4.8076
2.78526 13.7076 22.4425
9.68324 5.1976 16.1001
10.9841 1.21048 25.1551
5.66947 3.53601 22.8103
15.6621 22.2599 5.85014
7.19753 0.25 9.07813
4.71047 4.13693 27.7078
15.4787 9.79288 18.413
7.14143 21.193 9.48679
11.4904 9.13421 20.3354
13.8722 5.50675 16.3408
7.16408 2.30852 26.3338
9.98208 13.4574 20.7319
24.5764 11.4845 29.1133
16.152 13.341 20.7436
3.46253 16.5584 30.5722
7.3182 23.7846 20.5972
8.11315 4.33377 16.0725
16.9711 2.0273 17.8047
7.31878 5.2384 22.9523
22.9904 11.5165 3.47307
7.06229 3.6183 2.19709
6.35455 14.1305 4.71286
4.72027 4.51091 0.25
3.85062 3.21482 0.25
7.75871 9.60149 6.03346
6.81888 9.56043 4.71051
3.76308 4.16677 0.25
18.8531 16.6209 8.94593
19.0586 6.54984 11.1655
12.8742 3.47894 6.88631
3.10696 5.25833 39.9133
7.70607 15.0742 6.26848
8.5049 1.22987 5.22998
12.6152 4.47393 7.79319
11.2141 5.80449 3.04536
8.97608 1.36769 4.4034
7.51413 3.2262 3.95107
9.30439 3.30751 1.68427
21.8623 6.25052 5.34119
8.94777 14.1566 6.97734
10.3974 4.08376 3.20843
10.2057 2.67816 2.61234
21.2396 4.49731 18.7467
13.5891 3.74425 12.0521
13.0601 1.59096 4.47064
11.8603 6.91813 9.84728
16.6296 9.5883 10.8715
16.3767 3.44375 18.1026
1.1967 6.47163 12.6606
11.9708 8.87833 6.08159
9.98122 13.7834 2.82326
13.376 13.3187 9.88128
14.0093 27.1437 8.32384
0.25 3.87782 7.74123
34.9147 29.4125 4.16984
9.96058 11.6202 6.12948
10.2324 31.75 3.48844
0.25 2.33039 6.80591
34.1 31.75 5.77621
7.43867 26.2664 29.6222
19.026 19.7573 9.29173
0.25 4.24622 7.30628
47.75 30.9433 7.84283
19.7339 24.7224 26.2599
3.46276 0.25 7.36403
0.25 2.41245 7.25469
46.0625 24.14 1.33468
13.6945 9.11886 23.6791
30.9365 14.393 22.0803
0.25 3.84161 8.51464
47.75 31.75 7.28217
12.2944 15.9441 27.0547
2.80949 0.25 7.09814
0.25 3.15108 8.84016
43.9521 31.75 7.69432
13.9819 3.9725 17.7779
31.5232 30.3041 16.1228
0.25 3.00215 10.8755
47.75 31.75 8.26421
8.2198 15.1059 23.3386
3.35942 0.25 9.54479
0.25 2.29215 11.3583
44.1297 31.75 8.6372
10.9908 6.90088 13.1635
11.6922 14.9323 1.53973
10.4674 10.431 3.23872
9.12419 12.2129 7.15041
4.17349 13.0862 7.5113
6.91527 5.24734 5.16656
7.90385 12.1598 4.37366
4.14178 15.8617 2.5383
2.03498 19.4919 2.5974
15.4987 16.3262 8.28934
7.31449 25.7498 2.90943
16.8283 9.9748 3.38639
7.11526 17.277 2.05054
14.8696 11.5542 4.57027
14.1628 16.2367 1.50843
14.4708 15.3112 6.80142
13.3236 4.55936 5.99643
14.0769 19.9652 6.60627
6.54766 12.498 6.48262
11.0304 15.6266 10.6435
10.1643 13.6029 10.9883
10.7689 12.3876 1.72999
7.20866 9.46053 4.86937
1.29895 13.7646 3.70939
12.0676 6.37294 15.1181
3.19498 22.5444 29.6595
5.73768 17.0106 26.581
11.4596 31.2348 20.2505
12.5065 6.73729 21.2622
13.9388 17.7076 7.6054
8.06592 22.5377 11.502
17.0165 22.5236 16.0592
8.46771 14.7868 1.23823
10.556 15.955 6.13758
12.9047 6.24759 8.99083
17.1442 16.7386 1.92281
8.04309 17.3277 9.35594
17.7785 22.3397 1.32717
11.8243 11.601 5.17828
20.4853 23.0006 1.19082
7.38678 18.4448 15.1927
7.47855 12.7325 11.5022
20.8093 1.54169 12.3562
1.24254 4.88101 14.4463
9.72006 14.1328 4.92078
29.2834 12.6429 21.2633
8.63654 8.18174 8.01002
10.6437 30.8624 13.5717
15.2881 14.2839 18.1924
18.0377 11.9735 12.1819
14.7341 4.97018 26.3812
8.54414 16.2326 19.3288
6.31676 14.8033 7.40385
15.9736 22.9683 11.4716
15.0105 2.51895 9.12742
2.7427 27.0612 10.8523
9.78205 10.3354 15.8356
18.4348 10.8997 18.5528
10.2003 3.47454 26.9067
7.98932 21.4526 22.6547
12.2305 12.756 22.1606
2.35083 24.2973 10.0479
10.9399 2.53951 16.9913
5.75683 30.8146 16.077
8.71522 9.8005 3.48176
2.93023 15.4286 7.50358
12.2951 21.8936 6.66529
3.37282 16.4318 9.67795
6.61646 19.8746 8.35122
7.48359 12.0058 2.34246
1.41221 16.7544 2.73996
8.82983 19.1299 4.91858
30.3448 10.9699 4.67688
9.70835 9.93027 10.8841
9.02843 16.5961 3.82514
6.92054 21.113 4.29823
21.62 7.86647 3.83345
11.1408 14.2967 3.17777
10.1614 17.5373 4.55486
12.0727 23.9734 10.4876
8.07558 31.75 9.06262
9.96004 18.0581 1.55711
9.10483 15.6591 8.42107
13.2613 25.6505 13.1988
15.3202 30.6896 2.18199
6.66888 19.0052 3.95351
6.29276 17.539 3.96692
7.93704 18.5587 11.447
3.14885 18.0744 8.08549
11.6227 16.8382 6.98549
10.4607 21.1202 7.14091
6.58912 17.7944 4.97661
5.95453 22.158 8.65166
16.4756 24.838 9.45092
6.89453 30.9993 12.0618
6.14121 27.3435 10.1211
3.16299 14.5958 9.80691
27.617 11.1917 16.0442
26.0455 18.7524 19.2477
9.46708 23.33 20.0805
5.14847 22.0572 21.8181
42.3992 17.8556 13.7621
13.3147 19.4442 19.2251
5.78314 18.926 11.6602
3.40167 17.7137 3.04778
47.7474 12.5403 7.1223
7.9449 16.9359 13.3064
24.4289 10.643 19.1801
1.34531 12.348 13.8403
47.75 25.2519 5.63802
8.53642 20.6205 6.7066
4.42314 22.5635 21.0689
4.47882 20.856 10.8707
46.388 12.1876 9.42761
9.7916 17.7623 26.4282
22.361 11.093 10.8972
12.6025 16.5619 7.82347
47.75 24.6477 8.06688
5.12241 19.1166 25.9321
14.8218 16.4626 8.21683
4.54593 24.646 22.0975
45.9639 9.3316 12.173
11.8041 30.5606 17.7444
20.7015 22.6568 7.18801
14.5973 3.20654 28.9726
47.75 22.6191 10.912
9.91609 30.9503 8.75141
9.19191 16.7481 15.3353
2.29207 4.57749 35.329
26.2776 19.4781 2.23747
1.85008 21.6176 5.31247
9.26546 25.5393 3.45106
8.93718 31.75 5.42087
12.977 24.8287 3.87301
4.45265 19.9263 7.85919
8.34366 20.4818 2.1054
23.5009 7.75019 6.18228
8.4905 30.9163 6.60672
9.07223 26.3696 6.73529
16.3061 15.4888 1.59268
0.25 16.2561 1.49138
14.5549 20.9668 9.02901
12.7883 27.5075 1.46386
3.59923 21.6402 5.29328
4.56735 17.9782 2.67729
12.5177 31.75 1.6955
2.61741 30.9268 7.24144
11.7704 30.7016 1.469
10.9741 23.8176 9.07519
5.81947 15.0253 1.60372
5.96824 30.8624 3.37553
16.1513 29.7629 3.12949
1.17117 23.601 2.33986
8.02429 18.0249 2.22943
3.91042 30.7841 3.37292
17.357 30.1681 14.7595
1.99324 26.1761 9.54994
1.72442 17.0365 10.5197
8.51067 31.75 4.65432
6.81708 29.8517 9.91722
7.17534 29.5052 5.59107
3.08374 29.9554 13.3385
2.72011 26.8687 14.1741
9.2081 29.9799 8.58514
1.88868 29.4261 3.78744
3.74934 26.6457 14.2292
10.5683 18.0368 2.63059
5.17731 28.0207 4.05974
3.26304 23.5159 6.73004
7.12025 21.9966 8.72936
4.85707 29.9081 6.44755
14.5193 31.75 20.3027
4.83103 29.5485 17.2011
2.59761 21.7124 12.091
4.9948 20.7121 11.4229
11.6427 19.0375 15.1741
2.96269 24.5768 18.3404
2.06293 24.1796 6.64269
7.81441 29.1729 9.45256
19.9489 30.479 10.7391
2.55844 29.7122 10.037
5.28634 21.4181 11.76
1.59738 31.1343 16.6967
15.3678 24.9363 10.6741
3.81416 31.1441 20.0672
2.45212 21.9861 13.2774
1.43437 30.5149 8.75889
17.4656 30.5519 10.1535
2.96065 30.3511 18.5726
12.25 26.3142 11.5923
5.0622 30.2346 15.5329
13.6874 22.1284 10.7909
4.42659 29.0881 2.62736
1.24821 31.75 2.06608
3.89227 31.75 3.82244
9.92422 28.8185 8.08199
2.76403 29.4863 1.37528
4.16439 30.179 1.68742
12.8066 31.75 11.3164
6.10176 30.0404 11.7264
16.2979 30.5871 4.52266
1.17866 30.1605 4.55832
5.47842 27.7274 3.95508
6.59006 31.75 2.36964
1.9654 18.076 2.7641
1.40469 30.1935 5.01873
2.46276 28.6258 2.38014
2.10756 31.75 2.01611
1.16443 30.1237 11.5082
1.66404 31.75 1.171
2.97962 27.2157 5.50649
4.45983 31.75 4.48234
3.22421 31.75 17.1579
3.06194 26.9278 5.96156
1.24859 31.75 4.03947
0.930507 31.75 2.8952
0.25 16.8233 4.61986
5.24226 31.75 4.5185
7.25801 30.4278 7.83639
9.70889 30.5693 12.4083
5.16429 17.5805 1.33091
19.8706 29.4027 6.55335
2.21243 24.6595 13.5859
2.94294 31.75 8.12131
0.25 15.5567 5.25459
6.94357 26.3412 1.80164
7.5994 27.6569 15.1572
12.9745 30.6967 7.91942
2.70244 16.0834 9.09862
7.64353 31.75 4.73427
7.46342 25.441 16.251
3.85958 31.75 5.48563
0.25 15.5716 6.25146
3.53877 20.1964 11.6375
8.94195 28.0566 3.51985
6.75514 31.75 5.84902
1.63986 19.8556 1.46532
8.79502 31.75 6.29788
1.55232 23.3685 2.90853
0.25 30.7989 6.41415
0.25 15.5713 7.25006
5.91738 17.1891 5.02656
4.07796 24.0115 4.58855
7.22904 31.75 7.50505
0.25 8.22651 8.52804
8.51597 31.75 7.67833
2.66115 31.75 7.29597
1.01341 31.75 7.79887
0.25 15.5713 8.25008
7.05847 24.7783 18.3239
4.37855 29.4111 17.7542
7.50965 31.75 8.33692
3.56396 12.9046 11.2883
8.75907 31.75 8.4425
2.68196 31.75 9.62333
0.25 31.75 8.2834
14.6216 2.81016 4.19434
5.81533 0.25 0.25
10.8272 3.48339 2.36077
4.25732 8.68374 6.16592
14.5302 1.52181 4.35787
6.70106 0.25 0.25
8.82512 8.83085 4.03356
6.27359 3.01979 0.25
4.86522 0.25 1.04079
7.37294 0.25 0.25
9.57278 3.67335 7.40878
18.9786 5.54515 1.84991
5.18552 0.25 0.25
7.00364 0.25 1.25547
13.6945 9.01513 4.70739
11.7555 3.79202 3.18317
13.5122 6.24646 3.45681
6.08801 0.25 2.43841
17.884 12.8323 3.00957
12.9061 5.83477 4.88427
14.8027 4.43268 3.23338
5.67596 0.25 1.70745
12.8381 14.1248 7.43793
12.4333 9.9305 5.54399
4.57608 7.63862 8.8076
6.41473 0.25 5.08248
14.1628 13.5225 2.10517
9.93609 8.09028 3.77652
5.88623 5.16501 1.9075
6.77591 0.25 5.09134
21.6803 3.62781 2.72082
10.4377 9.22227 2.05099
4.23792 0.25 5.9847
12.2934 7.25857 5.75875
15.2801 15.4542 22.9568
14.9915 7.93813 1.21057
3.17335 0.25 5.97705
14.3884 11.1331 3.86522
15.8447 12.0905 16.8079
21.5762 7.46123 6.29669
5.51615 0.25 6.16257
6.75392 0.25 6.78235
5.86704 15.9431 20.5148
5.502 0.25 7.13072
5.20422 0.25 5.61078
7.52303 0.25 6.30477
4.66041 12.864 9.60301
6.31986 0.25 6.68855
4.78509 0.25 8.84242
6.41978 0.25 9.02441
19.5093 22.5931 6.31784
5.37521 0.25 8.53421
4.97035 0.25 7.5844
6.30095 0.25 8.39193
18.7567 19.3809 10.7391
5.7343 0.25 7.59928
3.86142 0.25 11.0301
5.99459 0.25 9.90527
17.0372 17.4435 36.9118
2.10167 31.75 16.1381
3.17872 0.25 11.5673
6.84554 0.25 9.81763
6.22647 1.69598 31.6453
8.16072 9.7329 13.86
7.03567 5.61745 7.48701
7.21159 8.21103 3.67355
10.0041 7.79131 3.50706
16.5449 10.7719 7.16838
2.29091 7.44878 8.10519
7.93666 8.76653 6.01606
9.16323 10.1004 1.24493
11.1707 1.24016 4.94255
16.15 6.35724 7.49535
14.1429 6.34748 12.4898
7.24123 10.6807 2.57121
15.3298 9.94314 5.43728
21.8682 1.55706 7.75692
15.0789 4.35168 7.06654
4.98595 12.2517 1.73122
10.3336 8.08007 10.8186
13.4579 14.287 6.20974
9.82223 7.17994 4.63513
6.38445 0.25 4.53296
4.21054 0.25 2.59456
12.0935 12.6416 4.14109
14.4227 2.78874 2.81904
6.88095 0.25 2.98245
4.88531 0.25 1.79266
25.1698 15.0099 10.2643
8.73485 6.69267 12.6399
6.01279 0.25 4.37653
12.4762 3.1204 8.5518
14.4338 3.32305 1.28669
0.25 0.25 13.2085
5.74086 0.25 3.7359
6.5202 7.64828 9.1462
14.605 4.16206 4.25443
3.42342 4.06738 5.86627
5.3059 0.25 4.6985
11.9174 10.6672 4.18987
13.922 2.10197 1.30047
8.57225 5.87202 2.73119
4.74255 0.25 5.10773
15.6542 7.46752 2.62598
8.31073 5.32224 5.20493
11.9176 4.14281 17.0381
4.75753 0.25 7.03391
12.2557 2.16411 11.3218
12.6478 7.38643 10.2658
10.2203 7.03924 2.34498
4.28162 0.25 7.45555
12.269 4.07495 3.02082
12.5702 8.44374 14.1932
13.7224 11.308 7.89776
5.00821 0.25 9.7338
10.3357 9.79001 18.4441
12.5808 10.4951 14.527
13.9118 7.32418 10.8309
4.64853 0.25 8.21516
14.3822 7.53201 22.8407
28.7746 3.1875 20.1932
15.8858 6.73233 28.0867
5.31981 0.25 10.3945
16.3698 3.49217 25.1496
5.64603 14.4398 15.0998
8.97519 9.82225 25.1668
4.45714 0.25 10.3181
13.1881 9.34003 24.3982
13.2654 15.4911 2.52175
7.79916 8.19471 7.88062
9.9652 14.0242 1.55478
15.0974 3.86072 2.43177
11.0863 1.2819 1.65398
10.404 3.77971 1.43587
16.0473 7.81239 6.74312
20.7803 2.0647 3.03239
10.5432 16.4486 7.31823
16.0712 16.2473 8.85128
16.2948 9.9074 5.07857
3.02304 8.8749 11.6372
9.60611 11.5807 6.3434
14.6566 12.0515 2.03379
12.0576 1.68767 5.62944
11.9961 7.79988 6.69291
10.7959 10.0185 4.17836
6.26891 0.25 1.54046
6.84559 5.61311 4.37439
21.7389 5.0075 2.20568
1.22262 10.1331 4.2066
17.9326 6.68525 3.60146
21.2402 8.4335 10.5421
16.1442 7.34024 7.00749
6.80291 12.2142 6.33668
13.0714 13.5525 2.25861
17.1836 3.15709 8.79174
21.9132 11.5755 9.27695
5.33259 4.80662 2.4695
17.3829 9.29309 9.5564
21.5975 8.78669 12.2499
22.2014 11.5943 5.06996
2.84865 8.12122 12.6746
5.49381 0.25 5.38973
15.4014 7.97141 5.49592
19.0322 5.42586 12.9564
6.20627 16.2295 6.56775
18.6668 11.8523 10.4913
8.66413 3.49873 4.0508
25.2653 3.8865 15.7817
1.21431 12.5603 22.1598
20.2608 8.56639 12.2589
13.7937 13.0978 9.74281
25.9207 4.58813 12.2947
3.68473 15.0242 2.35929
18.2614 4.10452 8.15785
19.8781 5.71611 22.2557
20.9549 8.04922 12.7471
2.64158 14.3191 24.2983
29.1623 3.02529 14.6641
13.5399 8.19158 14.728
24.4704 15.0578 12.1479
5.75868 9.81121 10.8322
19.1117 18.0099 19.4158
14.1018 2.81696 16.005
21.5358 17.9445 7.78151
8.74255 1.49481 23.9711
22.2061 4.76709 14.4909
15.7817 10.9444 20.9209
18.4787 14.8228 13.1427
0.25 3.22672 11.7235
21.6709 21.2915 22.1647
19.2537 6.47887 8.78734
25.9537 15.0623 13.0069
8.79199 9.49522 4.06117
12.5312 11.5241 3.10082
8.9245 9.85018 4.78868
12.1332 11.6614 3.83034
17.066 10.7063 9.45251
10.3334 9.93422 2.90979
16.6952 4.50555 16.7762
11.7097 11.7746 3.81701
12.479 11.1176 4.0723
23.0327 7.74577 3.12687
10.8224 15.2081 2.09701
12.0355 11.6554 10.3519
13.6879 11.3292 3.12564
11.6666 8.23583 3.44295
12.3994 10.566 10.4954
19.091 14.2013 1.36558
22.0058 27.6328 4.08942
14.3034 1.68066 3.93423
12.6057 9.74785 7.68894
15.1472 13.0868 1.34154
14.935 4.91552 9.0572
6.05918 2.4011 2.26016
12.3896 11.6206 5.8838
15.4418 9.99648 1.50439
13.5969 2.42485 15.922
18.6666 11.1212 17.202
21.8809 12.691 10.4244
18.3865 12.2502 8.95836
16.0865 1.42082 15.919
27.2517 12.4236 22.196
16.3497 24.1088 17.644
22.3143 11.8338 8.97712
24.7324 6.93357 2.23604
7.27433 10.2319 6.07585
19.7171 11.9391 13.7776
23.3508 25.3158 1.2195
10.6465 13.617 7.15656
21.0706 10.385 11.5021
28.8744 25.4581 14.8009
18.8736 10.918 10.9199
14.8469 10.0366 5.49485
7.3727 1.31841 22.4764
25.4242 26.6768 15.0122
27.5493 16.1508 14.7749
18.1968 22.106 20.7188
8.96681 19.6831 8.06923
23.843 31.3756 13.2036
31.9874 17.2749 10.3567
13.4684 13.0402 19.1724
10.9835 3.39954 18.4655
25.499 31.75 13.7877
25.9927 16.304 13.7031
16.7766 7.73235 11.1228
12.1709 4.99469 22.0177
22.3366 31.75 17.9628
35.9662 19.4134 9.12846
7.09152 1.29138 26.2289
16.4559 5.62536 17.1186
20.188 31.75 14.4733
21.7623 17.2734 13.3824
18.039 9.94009 16.3795
12.6971 13.5481 16.7854
11.6068 28.5907 17.9197
33.3064 18.5508 8.83006
5.63793 12.2323 3.27194
12.4043 7.69655 6.30719
12.7011 10.5774 4.15244
12.7721 14.6882 13.7003
7.79662 8.07193 8.21983
11.1294 10.7712 2.41283
11.3611 9.89986 3.26753
11.4819 17.2985 5.38565
18.398 14.3675 5.14384
10.8494 9.36527 1.61675
9.90097 10.7636 2.37929
8.15413 10.9604 3.53676
13.6695 10.7092 1.2528
10.3335 17.3104 2.86522
17.2073 15.4821 2.00896
2.37169 7.4591 2.81645
17.3024 14.1301 6.47017
12.5736 14.8547 6.63663
14.7183 14.5739 11.9122
13.7762 10.2267 2.79358
9.06025 16.2834 3.22409
11.8234 7.44034 14.307
8.38532 9.45368 4.97959
9.23897 13.718 13.3003
18.1038 14.555 8.3641
20.4795 17.0247 6.02082
21.5084 19.7152 6.21533
19.8021 18.8892 14.6591
6.60135 10.5912 7.67581
1.31261 1.79497 7.55532
12.8674 2.20188 4.02502
13.0732 18.9712 13.6157
7.68836 12.7312 11.9826
21.6836 7.83355 11.5008
4.70381 24.8616 15.81
13.4854 10.4719 8.64422
6.85064 14.07 13.0714
31.4373 11.4464 25.2058
3.71169 8.54609 10.869
23.2666 14.4293 4.93693
8.57302 1.24949 36.5028
2.47212 10.0316 8.38597
14.8952 9.1991 18.5068
19.4888 13.6196 19.5197
10.6741 17.119 22.7797
20.2914 21.0924 5.73922
12.5905 13.1236 24.3498
16.1555 16.4005 17.8845
10.4314 10.4808 13.1336
15.9993 3.11224 6.29065
17.3595 6.37561 7.74365
15.8558 11.7687 13.6513
9.56357 11.7625 9.29958
24.6031 15.6692 14.127
15.8403 10.8246 7.81558
8.51654 10.0669 10.2225
15.6454 13.8005 22.6212
16.2438 9.74023 8.96702
14.5901 9.35177 23.9885
20.2264 15.757 23.9185
1.47995 24.4472 33.2281
29.9097 17.26 11.0933
25.4701 12.0997 20.2582
20.2854 1.15946 24.9009
5.9657 15.1176 4.38635
5.49184 19.6009 6.90619
2.81357 14.2757 2.02453
9.27055 16.6667 8.19798
8.43896 11.9944 1.64045
9.64297 8.43898 6.70386
3.48244 1.37376 7.932
17.9917 15.385 8.41036
9.555 18.3027 4.49106
8.25687 13.8 7.68749
3.18704 18.189 12.4362
20.9258 4.47696 1.59479
7.9942 14.1026 9.62602
9.95718 13.1346 2.46684
4.67238 31.75 11.6511
10.3414 0.25 1.23097
7.86152 23.648 4.25367
12.8761 23.3042 7.37632
4.9745 18.6192 4.23369
14.253 31.75 5.18419
12.562 16.7689 4.80263
11.0983 20.5943 22.6662
6.92233 30.7347 3.4102
17.6421 29.7246 5.14897
15.999 11.0364 6.20817
2.36839 13.7443 5.1804
13.413 18.9832 13.9064
10.7579 29.3005 12.6846
11.2459 20.5065 14.2035
8.94794 19.9358 5.80747
10.6484 23.0184 11.3536
13.3498 27.2916 14.2553
6.93386 19.583 11.7204
12.8095 11.7075 2.28907
3.99481 30.7913 13.5107
5.03717 31.75 6.40498
13.0666 14.6916 5.70932
36.3234 31.7446 9.6686
2.25771 30.8421 8.00058
12.7793 27.7841 5.23788
13.3176 14.671 14.592
10.8381 5.51228 6.72662
1.1929 23.5344 18.8077
5.9965 31.75 6.32803
20.1257 22.3191 7.62978
23.7556 21.9955 11.7816
6.23118 29.3325 11.0303
14.4671 28.0939 6.95221
7.50879 13.4414 9.63971
8.96055 16.3018 16.558
17.4125 27.2916 8.62814
17.2699 27.2547 2.39633
14.9211 20.959 10.7836
25.3604 24.3618 9.35964
3.88666 29.8302 11.6352
23.4257 22.0197 12.235
7.41463 14.7138 4.43807
8.48103 14.1162 19.8163
19.4739 27.9928 8.2719
9.27745 31.75 7.1721
25.5432 13.0171 15.0037
26.7395 25.0859 12.692
16.0705 23.7251 20.3003
23.8832 16.0135 9.32728
5.36935 24.0597 7.0463
10.3983 22.6387 9.13038
9.86363 8.45751 9.43359
9.12244 30.3878 6.52447
8.84799 18.6272 1.2393
10.2669 26.9677 8.1263
2.19983 19.6648 3.27889
4.19145 24.2432 3.79707
1.88854 23.4266 1.89792
19.7571 22.0901 6.03972
5.56439 27.9948 1.28066
8.4927 22.634 6.76419
3.24012 19.0122 7.6259
13.2524 26.8407 11.7017
5.24038 22.7248 2.24673
7.26564 13.3031 1.41455
5.36742 27.6952 12.3383
15.4076 22.471 1.3955
7.72711 30.5797 1.76559
1.76193 31.1938 6.23214
1.39802 26.6583 5.70845
14.1674 29.9741 3.24352
1.71481 27.8395 1.68128
13.678 30.4334 2.26064
10.8579 19.2862 14.5229
10.1673 25.5535 10.9675
7.86735 28.7126 19.8908
3.99539 27.2577 13.7151
16.9705 21.747 11.7239
4.07143 23.8885 3.82253
26.5226 28.6891 10.0422
7.84955 30.1855 19.2357
18.3535 9.89556 31.0483
3.70664 25.1984 2.27932
11.8682 31.75 6.34151
1.44999 27.411 12.3927
19.547 1.15992 4.335
10.2025 31.3482 1.40479
9.37427 31.75 4.41919
3.84187 31.75 8.21566
10.2589 4.65559 10.0672
12.4785 21.843 15.1942
18.781 25.191 6.10458
1.47077 30.6963 4.09303
18.6497 6.46996 13.2105
2.09029 29.2537 21.3891
12.0446 25.0578 3.88515
3.1227 27.4704 14.0887
10.8975 13.4459 5.69242
8.8915 12.0251 13.617
20.6114 26.5426 5.80488
2.61986 30.6602 9.58912
25.0052 2.34275 6.80564
7.67016 31.75 9.99209
10.6688 24.3945 3.67123
4.56603 29.6698 9.03652
10.153 20.6812 14.2376
2.95787 10.6353 9.52068
21.4366 26.05 6.68621
3.72138 30.1367 9.13865
23.2968 5.92402 18.3179
4.75324 31.75 9.69801
11.7853 27.2661 9.48725
3.37914 31.75 11.3247
5.09225 29.1122 1.22428
6.99394 30.8737 10.3943
8.36712 30.3243 1.79403
14.3627 29.8944 6.95944
5.23074 27.4 2.50439
5.44326 30.7777 1.98308
5.39828 29.1564 4.03569
12.8531 28.9212 12.1539
9.1998 28.216 2.76742
9.30854 29.9328 13.1722
14.4408 24.7545 2.23935
14.524 29.9034 1.99453
3.34698 20.9563 4.19172
6.67801 31.75 1.42338
19.6341 11.8651 6.68857
6.24291 31.75 3.29795
13.3088 28.6431 7.85743
13.2699 26.452 4.41776
6.25834 31.75 7.11773
9.32372 27.0922 3.13737
9.15421 24.0816 12.5157
4.8892 26.3117 10.5238
4.26798 29.3256 9.97729
8.31866 21.6405 2.05539
2.62937 30.1022 16.4754
9.17906 24.908 2.17539
5.54017 31.75 5.64144
11.9807 31.75 9.77161
1.98488 31.006 10.0702
6.79868 31.75 4.97057
3.09401 31.75 5.68185
8.33568 31.75 10.5652
3.83167 25.8231 2.73694
5.60277 23.6543 4.43905
11.7624 30.7343 11.6805
34.0313 31.75 7.18784
2.63977 30.1133 1.32765
1.18092 28.1341 3.72121
3.09201 29.7508 7.97209
0.25 31.0071 5.1928
2.28457 25.1465 1.24015
5.94898 31.75 4.8479
7.74278 31.75 5.86617
46.6592 28.29 7.84278
5.09918 29.1061 4.43223
12.5492 27.7082 11.881
1.20882 28.5416 8.93262
0.25 31.75 5.66317
5.38082 31.75 7.27178
1.057 23.511 9.17061
12.446 29.6671 7.34071
44.1472 28.5002 7.24516
3.49181 31.75 6.57794
8.39005 28.8478 4.42042
3.30055 31.75 8.9794
0.25 31.75 6.51105
4.20905 31.75 9.00089
12.137 26.1808 7.95042
9.29936 28.4239 17.591
31.9136 31.75 8.14546
1.6562 29.3348 14.419
7.68384 26.886 11.4405
3.46176 31.75 10.2806
0.25 31.75 9.14116
6.48078 1.27522 0.25
7.87115 0.25 0.942408
15.2091 5.20071 5.61348
11.6667 7.78194 1.97976
7.7097 1.17481 0.25
8.23088 0.25 0.25
18.1041 8.07239 3.99056
13.7716 5.01424 2.72214
19.4432 4.0336 6.25871
22.2281 1.52075 1.65844
11.2896 6.67068 2.86322
19.5412 6.46506 2.38996
15.2416 11.8629 4.85746
18.1916 6.67234 6.72602
13.773 8.0866 5.72328
20.4138 10.969 1.82257
7.49626 0.25 1.89557
8.88536 0.25 3.34896
14.7197 11.8045 5.51626
11.838 5.15811 1.7499
7.61935 0.25 2.6352
8.46818 0.25 2.52237
19.4738 17.7626 5.79559
11.5162 8.33406 1.31187
22.4971 9.42256 1.29297
8.73861 0.25 4.04625
24.3886 1.76097 4.01965
23.04 11.9551 5.16771
30.9264 9.76654 2.28492
8.18077 0.25 3.1553
21.5461 1.74199 8.07222
15.7417 11.3317 5.75801
16.7462 4.83131 17.2183
9.09443 0.25 4.86452
20.5093 7.39568 13.1952
15.0059 3.27083 10.795
18.1023 6.16583 15.0754
8.17941 0.25 4.74195
15.4412 12.1885 9.75662
15.8615 7.08935 14.9943
8.01313 0.25 6.07797
9.31489 0.25 6.85426
13.8164 1.29161 5.00084
13.9703 5.17065 9.56247
7.79895 0.25 6.80171
8.58677 0.25 6.46572
15.6815 13.8057 11.2053
22.0181 12.2087 14.97
7.0434 0.25 8.18825
9.20331 0.25 7.60962
11.5383 20.0378 5.08949
23.807 14.5521 13.4818
9.49321 0.25 8.4554
8.59727 0.25 7.29684
11.9526 13.0921 6.55724
21.9827 30.8428 23.9315
7.66223 0.25 10.0053
8.61208 0.25 10.0203
16.5307 20.4362 6.84463
12.8863 15.1943 25.0644
7.84042 0.25 8.46097
8.13703 0.25 9.32414
12.4336 10.2984 24.7312
27.5261 16.2318 13.3199
13.561 7.09052 3.2467
17.0307 2.94424 2.35172
13.7127 20.1154 2.46377
25.5147 8.26182 9.49208
12.177 2.44256 2.00447
27.762 1.27573 1.73956
17.235 6.1055 1.23944
14.1981 13.708 2.9003
17.0906 3.13918 4.94951
13.4093 7.89741 7.73264
16.4261 4.51922 1.23462
21.7227 3.49681 1.27919
14.9138 6.13766 1.26197
8.80668 9.06012 25.867
17.5262 4.31302 1.4359
18.3217 14.0727 10.1751
10.2266 9.38683 7.01677
21.0686 16.5609 4.39164
7.02364 0.25 2.02813
8.8497 8.31292 4.79717
10.4346 16.0641 2.72661
12.5222 16.6217 14.9887
6.48064 0.25 3.5712
7.26299 0.25 3.48838
11.0727 16.4136 14.166
14.8077 20.2359 4.23046
11.0627 4.51878 3.07552
7.24107 0.25 4.15107
10.0211 9.93264 14.3866
12.9749 10.0591 5.6137
7.89897 8.14427 6.26287
7.874 0.25 4.02971
22.807 8.95209 21.0493
23.6509 12.1489 8.97454
13.7056 15.4633 8.07453
6.76417 0.25 5.69862
18.5851 13.166 5.34072
26.6899 14.4848 16.3439
15.6738 14.8835 10.6929
8.39964 0.25 5.3723
6.71804 10.6888 17.4277
22.3698 14.6319 15.6509
26.9252 18.8582 14.0255
6.46156 0.25 7.37945
8.33261 21.1699 20.6759
19.6183 3.18777 13.9531
24.6718 14.1151 10.3384
7.88001 0.25 7.88466
14.814 22.1263 10.6911
30.9257 20.5808 14.1963
24.8689 1.52949 17.2793
7.05754 0.25 7.34933
5.77323 7.77764 16.3577
13.1216 15.0176 13.8631
13.6646 4.82478 11.9243
3.87204 10.0943 1.33501
10.4417 11.3623 8.13369
21.6347 18.0094 11.9415
27.0701 14.287 16.1335
6.73948 0.25 10.6536
3.17852 15.5038 8.23707
19.3938 12.2052 7.86872
17.1601 2.79777 22.2352
5.88878 0.25 11.0517
20.0891 3.37032 1.88042
16.5047 13.6474 2.20064
17.6261 8.40072 2.98207
19.7604 9.88309 2.51673
12.349 4.61236 1.57823
16.24 10.1249 1.9087
11.6075 3.25287 3.30206
17.6273 2.2413 6.43163
20.8537 11.5157 6.41576
18.1373 1.86743 8.88768
11.7392 14.7355 15.9996
17.876 5.34284 8.49258
16.165 3.36887 2.22293
14.465 8.97914 1.71042
20.4654 6.34024 8.53233
23.1565 5.58864 6.49886
20.0223 2.50535 4.20578
20.6625 2.22532 7.13953
28.5982 10.6276 12.5688
24.3536 1.33277 5.19656
14.7347 6.72965 8.11963
15.7073 2.67742 3.57099
33.2779 2.72701 16.381
26.5731 4.8384 6.91007
12.7894 8.64334 13.2276
17.7473 7.94308 15.9379
13.8358 13.4385 4.73251
13.2579 8.89146 1.17585
21.5369 2.56151 13.6217
14.8936 11.2688 14.591
15.8064 9.75433 11.9117
20.4899 9.07536 11.1053
19.355 10.2081 2.72845
20.7638 4.2994 12.2123
30.7377 10.5486 7.46408
31.9617 1.80724 10.1438
12.4236 9.96722 7.12216
13.1174 3.91911 10.9501
15.6772 10.0723 6.10071
25.672 2.79412 7.39841
12.278 2.86288 17.3315
31.1545 6.46096 11.2521
31.7742 1.51506 10.923
24.2801 15.0583 1.51111
17.6267 8.98077 15.942
13.3848 9.95111 14.536
29.4554 2.61407 10.9641
22.1279 6.04255 12.3666
13.7697 10.592 3.27031
24.7673 5.80065 15.8941
31.0234 2.80862 14.7984
23.3868 10.7108 7.28728
9.51685 7.20152 19.7145
22.6727 11.1218 10.7193
14.3287 1.34714 13.0507
21.354 13.7894 14.335
17.3626 3.33314 18.4995
13.2023 6.07411 4.42021
29.891 1.62531 19.4117
19.5823 17.8684 15.7887
23.7665 17.0243 17.4522
21.4926 9.67167 12.1298
12.6665 2.33483 14.4479
22.5676 13.7128 13.4501
11.9023 6.90974 1.3056
18.4712 5.8309 19.2767
8.64898 2.67278 4.68844
22.0545 3.23607 5.6335
13.8527 9.4387 2.52279
18.0412 10.772 4.44454
13.5961 4.461 1.64669
21.9147 6.78411 3.8104
15.8624 22.3207 9.46034
17.8256 5.58581 5.44407
24.9327 17.0075 12.4981
14.2728 10.4241 6.67808
17.1028 19.2889 1.31857
12.8634 16.1908 15.7955
11.7706 11.1439 3.49884
20.3865 17.1423 7.79662
29.9842 17.7481 1.8204
12.5579 2.24911 2.70111
18.9603 2.95505 18.2368
18.9431 21.9071 12.2361
29.4071 7.89404 2.16972
23.6148 11.2171 6.22907
21.3383 14.2848 21.7207
16.7759 12.5968 10.8452
20.9613 5.93134 16.4822
30.3794 14.2702 7.79061
20.115 4.41906 11.9083
24.6613 11.1667 4.67464
18.2026 2.36056 9.47075
22.9919 2.28925 12.4406
19.5737 7.14975 13.0938
20.3813 5.44579 8.52098
10.8701 6.74888 9.64534
13.1966 13.4394 16.7593
8.29335 31.75 13.1746
28.8412 5.40075 14.5978
30.7142 3.35135 13.4592
16.8018 18.6962 6.79725
21.4431 28.966 2.02624
27.9184 2.71987 12.9197
5.66699 1.25629 19.8075
22.5046 10.5562 14.6617
12.9458 25.0607 11.1508
28.9835 2.91707 17.7155
11.3113 9.35345 6.93035
29.2176 10.3043 9.34088
25.2739 28.8172 15.8554
33.2968 1.38351 9.69818
11.2339 9.6806 13.0098
21.6128 14.4724 15.8919
1.74225 29.8189 16.2427
28.4671 3.81013 11.742
3.13181 20.5719 4.19766
25.0085 9.60649 14.2911
20.9796 28.6422 8.66372
34.0609 2.24935 11.0394
3.75831 7.27416 25.1933
24.3833 20.9332 20.0175
1.77547 30.0224 1.25808
30.3463 2.21233 8.4944
6.45332 5.67857 13.2746
30.2091 15.3028 17.7162
28.3251 29.7147 10.4223
31.1073 1.2616 12.0561
20.9359 7.36515 5.16252
15.9026 8.58436 4.04974
21.6254 4.26298 8.70014
17.5529 8.8925 9.27137
10.7122 8.47213 5.71379
7.96301 10.8155 4.72528
14.7703 11.2655 3.7417
13.1829 13.6058 4.59832
24.8644 11.9264 12.687
16.4477 6.89277 0.25
22.7901 8.6132 12.8433
20.9454 6.55727 1.71579
17.7298 10.0072 5.68669
18.7419 5.05691 0.25
12.8774 9.47261 9.228
11.5244 9.75169 4.25978
24.618 8.47885 8.05387
14.7898 10.6895 8.3764
20.2661 11.0351 6.631
36.201 13.9819 1.3171
14.9462 18.6669 5.94137
27.7851 3.86443 1.59268
21.9677 13.1328 9.92973
26.3875 17.9557 1.28439
20.0656 8.1355 12.4717
7.2299 15.2117 12.3838
20.7547 3.26257 10.4786
21.4115 6.29942 11.9278
12.7986 13.836 6.23211
21.3552 18.5564 15.6546
17.9444 8.69445 14.2469
31.7967 16.5723 9.22332
11.7192 9.29288 13.6236
24.8174 5.10145 10.3313
8.19794 12.0085 8.73772
23.3638 1.18686 9.82295
14.3409 9.1342 12.4872
39.5111 9.2178 9.13733
8.19987 23.5619 12.974
32.5226 18.5904 10.1962
19.433 7.67345 3.645
23.9192 8.10691 14.6048
17.0979 13.5623 12.4411
26.1951 5.27502 7.0984
11.7826 10.7586 11.2955
28.4976 13.8229 11.596
13.7602 20.4154 9.1126
24.5145 14.5459 10.0058
19.3176 20.0402 12.1742
25.4446 4.20943 11.5235
23.228 16.4707 16.9507
26.3278 9.29705 7.87814
15.8776 1.27245 20.9515
24.2439 13.0624 11.1462
24.3271 21.8132 1.8529
13.6832 17.1451 15.1345
19.2137 15.8164 11.1614
25.1332 7.7736 10.1802
18.9667 10.5773 12.9018
22.6784 6.92982 8.66299
13.8382 4.45598 19.3037
25.7823 10.684 11.9371
24.5511 19.0361 12.8362
19.5927 17.6599 10.5569
15.0672 15.8161 1.83045
13.7832 13.4983 7.50016
13.944 16.6596 8.60299
18.0715 18.9338 1.3309
11.8187 14.2003 1.49553
17.701 15.7685 2.13709
16.0907 14.6177 2.93992
19.2339 18.4975 9.03346
22.2198 13.93 3.3906
20.7529 16.2045 10.536
18.2494 22.217 9.47587
11.8373 8.49471 6.59074
13.3974 15.864 3.0092
19.9211 17.4432 5.60598
13.7774 19.8996 1.2084
27.1215 5.53566 3.21531
15.8731 22.2226 1.26707
28.9415 12.4848 7.36994
11.8508 24.9322 2.54047
27.7303 16.3872 20.6955
19.9992 24.3893 6.82902
16.6073 5.10936 2.94193
3.66663 23.3682 1.47781
26.0696 18.6617 7.92586
12.8068 17.7623 7.59394
22.3133 19.1786 17.4377
10.4586 24.9557 13.2509
47.75 21.9343 18.3005
19.054 16.5608 11.8207
27.0128 19.1881 14.0857
21.2943 23.7705 14.8797
2.05216 30.1312 32.9715
12.475 19.1956 8.31182
30.3193 7.63319 5.89228
5.28846 22.0558 1.19439
24.2561 16.6311 19.4968
8.28456 19.9905 8.97137
42.6505 8.18003 8.89132
7.46424 31.005 11.5649
25.8654 20.9352 16.4746
2.32388 25.2384 8.1606
31.3848 7.16065 2.02596
7.70997 25.6811 13.6742
3.45516 3.38054 2.47419
8.8754 24.003 11.6242
46.6482 4.50032 9.24155
9.23603 30.2127 11.8791
46.575 31.75 6.3746
1.25138 27.8092 20.3083
29.1621 10.6863 13.1868
8.10031 22.2486 7.59354
5.60014 1.79554 24.2662
1.61344 31.248 19.0883
44.2133 12.3147 7.96004
18.7069 30.5705 6.87369
45.876 31.75 7.01586
5.97543 20.1227 7.70033
26.6988 8.97748 9.09931
15.8202 25.6784 9.10535
3.67612 13.0602 9.12507
5.83859 19.4716 16.5213
44.6294 8.30366 8.05485
16.2492 29.3472 9.5901
46.2993 31.75 8.62424
13.1168 16.3611 9.67826
14.6885 20.3158 9.75541
10.98 22.2168 4.96532
18.8969 28.286 7.92916
13.8432 14.2812 6.17171
15.848 26.1048 5.96764
11.884 21.604 1.45133
17.0262 30.91 6.75642
16.8904 24.4425 19.9348
18.617 16.7302 11.0405
17.2087 30.8237 2.65393
12.4788 19.8489 4.02594
7.36913 25.0697 8.48206
22.7769 23.5133 11.4284
9.94081 29.023 1.74867
10.4923 15.8931 5.64532
24.4031 20.0808 2.49879
24.6578 21.0909 1.73801
5.93495 30.4479 5.21599
22.8607 29.3293 2.12443
11.2231 31.75 6.99589
25.7038 29.3633 1.80702
13.3465 29.5556 3.07772
11.0058 28.0629 9.82622
17.2202 19.7952 15.7427
2.23727 11.7708 30.3652
13.3118 30.7739 27.221
13.735 31.75 12.1814
16.876 28.0981 8.90658
22.8118 30.7252 12.3412
17.4871 29.7683 26.2918
4.08866 30.5159 12.7217
27.143 18.8838 13.1386
2.94406 28.5428 14.9066
28.2057 28.0986 9.34898
18.8411 30.3022 5.5857
26.6209 23.2538 9.8635
3.02569 28.6183 11.5794
30.7927 26.9942 3.98877
8.41525 30.5465 8.2896
31.9659 18.8428 8.88215
5.78506 28.614 8.34884
20.6898 31.75 5.96042
15.5521 30.6136 6.25
21.1501 26.1162 6.46097
2.13952 31.75 3.8713
19.4199 31.75 6.83688
9.70222 28.7261 8.612
29.0158 21.2524 8.48834
1.69508 30.3572 8.49354
20.4542 30.5421 7.64296
15.5525 30.615 7.2502
17.0655 25.2696 7.25001
1.23246 14.719 11.4552
27.4548 27.5632 12.17
10.8338 30.9926 7.23764
29.0192 19.306 8.95318
3.60414 30.3461 11.102
23.8356 30.1574 8.04197
15.5521 30.6162 8.25
18.3405 25.3122 8.25014
1.02515 31.75 9.4368
29.1821 27.5564 9.02386
10.3983 30.9428 7.97965
8.44082 30.8718 10.3541
8.75917 25.4479 2.61608
9.43683 31.046 10.2821
12.1172 30.9734 2.56717
14.8333 30.5914 4.14618
13.4738 28.3018 1.51026
13.2423 30.9287 13.2819
19.1165 31.75 13.7205
10.6793 30.1298 12.3352
16.4016 29.7157 4.77872
15.8162 28.8833 1.39354
22.5607 27.8587 6.74877
9.1896 31.75 1.46149
13.6148 23.3916 1.45118
19.1211 29.8959 2.71798
16.3611 31.75 1.24044
10.967 31.75 4.11689
21.7062 26.9861 8.39181
13.1957 31.75 3.21622
24.2691 29.0352 5.14692
16.4526 27.4545 12.2954
13.7988 28.1745 14.0055
9.31624 31.75 3.48332
17.0315 31.75 4.92426
11.4628 24.1345 3.86356
14.0126 26.2018 4.25101
12.8904 31.75 5.98523
21.3544 28.1618 12.31
11.3176 31.75 4.79863
16.698 31.75 7.34511
9.09746 27.1013 5.87417
31.9549 26.8766 13.8987
13.5069 31.75 6.78969
13.9496 24.2396 5.25008
13.4091 29.5003 8.18697
25.727 29.813 6.79838
17.513 29.4614 5.41929
15.1238 29.2697 5.51534
16.4671 27.2838 6.35021
17.7907 31.75 5.50993
9.53919 28.2746 6.95417
17.4372 28.3505 6.3171
11.609 31.75 7.81963
27.4902 28.6611 5.69495
13.2845 29.2561 6.92356
23.3968 28.93 9.88185
8.00412 31.75 6.75414
17.3717 31.75 6.38757
10.2664 31.75 6.4001
17.9525 26.159 7.00173
13.0103 31.75 7.63248
27.9483 28.2752 8.37381
13.8707 29.8987 7.80819
21.2196 29.3138 10.4457
10.2816 31.75 8.28608
18.3296 31.75 7.41292
11.7233 31.75 8.73462
17.6831 26.2674 7.96386
12.6518 31.75 8.48095
25.5418 28.7357 8.57215
10.4692 29.429 8.43908
15.8571 30.2864 3.37225
17.189 27.9503 13.339
18.4609 31.75 8.34161
10.4923 2.26793 0.25
29.0969 2.25386 1.98002
9.10343 0.25 0.25
17.183 3.20926 1.61251
28.1471 4.41492 8.24275
28.4579 4.99987 1.32798
17.5837 3.26533 5.09727
19.2238 11.0261 1.41173
9.05241 0.25 1.81509
8.64694 0.25 0.984801
15.7267 10.9695 2.87339
33.9561 3.64341 6.69563
8.37445 0.25 1.66016
9.49746 0.25 1.0962
15.4726 4.34641 2.53508
20.8048 3.07293 4.48174
9.37153 0.25 2.5918
9.79848 0.25 3.39533
14.4028 6.74134 3.86894
23.5033 1.55535 6.11658
9.8709 0.25 1.95555
10.5913 0.25 3.56042
13.0985 5.01746 2.69314
14.5049 1.7346 3.4786
9.36393 0.25 4.14623
10.6902 0.25 5.03486
16.524 3.26397 1.89925
33.8512 1.25197 2.64902
10.1976 0.25 4.36997
11.0269 0.25 4.27128
13.4978 3.44156 1.22904
27.9647 3.30754 10.8929
9.02874 0.25 5.7292
10.4412 0.25 5.84086
22.7675 12.8582 8.35935
13.8228 6.53694 5.03542
9.78962 0.25 5.17491
11.1884 0.25 5.73354
19.7546 8.39417 7.96156
23.923 8.75353 5.76004
10.8379 11.4656 5.56689
10.9476 0.25 6.50809
19.6535 8.64078 4.87016
19.8174 7.22477 9.88973
9.70528 0.25 6.15177
16.9213 10.5859 9.97464
13.7469 9.21619 14.7648
21.1943 4.10138 10.729
11.2534 6.18491 4.17696
11.2371 0.25 8.02198
21.429 5.90149 18.9209
21.0991 11.9198 13.6638
10.8088 0.25 7.39134
18.2371 8.36355 10.7957
11.9508 3.44615 14.2638
26.5771 7.73579 13.862
9.86406 0.25 9.23995
11.2339 0.25 8.9357
14.3436 1.34381 23.3039
25.8842 8.13392 20.429
10.4076 0.25 8.4969
12.4289 9.13389 7.69759
9.85596 4.93831 24.0574
23.9727 8.52096 22.0821
21.412 4.91532 1.32042
15.3354 3.51644 1.63116
20.5332 12.1601 11.627
20.5961 4.06284 1.75225
18.3986 13.4221 1.41606
18.0459 10.1162 2.6781
31.1483 2.7485 2.18161
22.8685 15.6376 3.23181
15.1122 8.99371 5.31612
16.7587 1.82497 2.08478
26.4664 1.2907 6.92293
37.8631 7.87648 1.88497
23.0404 2.09601 6.2825
19.5577 9.0416 4.09821
20.7404 7.61379 3.85102
17.6903 15.1528 4.56749
22.2814 11.4134 9.98585
37.5904 7.41506 5.99243
20.3259 16.2508 10.3557
11.1711 0.25 2.88715
18.425 3.40915 1.88538
34.9265 2.16118 6.04218
22.8189 15.2598 8.62377
10.2812 0.25 2.71651
13.8067 1.26717 8.46592
38.7644 12.9745 9.53066
29.1812 16.0335 8.5863
30.6279 2.04592 10.2019
7.61455 0.25 4.62387
34.055 1.93256 5.85515
21.7057 2.27659 5.04524
33.114 7.60447 2.21164
22.424 10.3783 9.44436
33.7565 3.13848 8.19584
24.9289 12.7319 10.2298
27.4366 11.4845 10.2611
7.65436 0.25 5.61416
36.1935 1.64425 5.37507
16.8306 9.76049 15.7577
32.6303 21.0954 9.0459
13.8354 3.79037 12.9558
39.485 4.24462 10.8541
11.5141 1.69886 18.0173
46.7655 4.5156 1.32647
10.0702 0.25 6.8235
36.5399 3.11336 11.5979
15.7795 7.98679 12.1458
34.6247 7.46402 7.11731
16.7927 10.3715 24.5018
21.5339 2.36807 10.8045
23.8963 6.07621 20.8416
46.1227 9.43536 9.313
8.5902 0.25 8.24387
35.7214 4.43693 11.8145
26.536 1.4097 17.9786
28.2318 4.00346 12.8464
14.8628 5.01566 18.2914
33.9992 1.50741 14.4308
